ply
format ascii 1.0
element vertex 1211
property float x
property float y
property float z
property uchar red
property uchar green
property uchar blue
end_header
0.339068 0.593053 -0.570755 150 150 150
0.013954 1.047610 -0.989509 114 114 114
0.243734 -0.015749 -0.703204 109 109 109
0.423880 1.208930 0.283882 172 172 172
-0.292793 0.407198 0.547277 39 39 38
0.375289 1.303341 1.113254 186 186 186
-0.023950 0.620617 0.796816 113 113 113
-0.315513 0.556280 0.590183 108 108 108
0.399771 0.843879 0.570394 144 145 145
-0.308983 0.647459 0.559375 22 22 22
0.417105 1.301076 0.357557 174 174 174
0.014005 0.739694 1.766472 104 104 104
0.118455 1.849978 0.065090 203 203 203
0.032900 1.858589 0.118209 205 205 205
0.351635 0.659556 -0.730229 125 125 125
-0.342940 1.721430 -0.318740 194 194 194
0.405886 0.867086 -0.383533 153 153 153
0.460211 1.097707 -0.696656 148 148 148
-0.123315 1.865929 0.751945 204 204 204
0.351164 0.886124 1.018223 163 163 163
-0.127148 1.713627 1.438351 195 195 195
0.400363 0.836619 -0.739495 131 132 131
-0.342640 0.781201 -0.812696 118 118 118
0.095607 0.801053 1.605110 99 100 100
0.407736 0.927781 0.253944 167 168 167
0.099153 0.777661 2.259764 150 150 150
-0.043397 0.730573 1.807060 103 103 103
-0.335676 0.998333 1.163186 68 68 68
0.386769 1.521052 0.905701 183 183 183
-0.034710 1.880614 -0.545805 201 201 201
-0.308577 0.518120 -0.810483 86 86 86
0.357130 0.002192 -0.647225 95 96 96
0.193710 0.566296 0.050515 106 106 106
-0.440445 1.377444 0.775462 178 178 178
-0.416122 0.814228 -0.461354 86 86 86
0.381680 1.655887 -0.090352 177 177 177
0.314422 0.775564 0.947551 155 155 155
-0.411235 0.892607 0.170279 132 132 132
-0.267134 1.115868 1.405488 103 103 103
0.321875 1.662442 -0.733207 181 181 180
-0.384190 0.792552 0.853796 61 61 61
-0.230520 1.652179 -0.893154 194 194 194
0.301370 0.555003 -0.554846 147 147 147
-0.133752 1.811808 0.257022 203 203 203
-0.398111 1.459804 0.256910 172 172 172
-0.450191 1.391040 -0.608969 164 164 164
-0.259557 1.776642 -0.466485 201 201 201
-0.037919 1.869665 1.300209 205 205 205
0.268463 1.649324 -0.849310 179 179 179
0.005758 0.768464 2.282986 44 44 44
0.182736 0.846140 1.995938 176 176 176
0.214154 0.303267 -0.941258 110 110 110
-0.403598 0.804808 0.149793 108 108 108
-0.374216 0.845768 -0.340997 80 80 80
0.290479 0.008323 0.522832 91 91 91
0.415874 1.494596 -0.024820 175 175 175
-0.408617 0.740578 -0.535500 83 83 83
0.111962 0.480303 0.516377 75 75 75
0.203347 0.990716 -0.968970 151 151 151
-0.434735 1.213056 0.019674 151 151 151
-0.426105 1.176567 0.448854 148 148 148
-0.283051 1.572629 1.725154 199 199 199
-0.173505 1.534993 1.727787 202 202 202
0.070491 1.180506 -1.055240 154 154 154
-0.307165 1.302540 1.352041 172 172 172
-0.273341 1.731067 0.707517 199 199 199
-0.470991 0.981983 0.806907 103 103 103
0.272445 1.581537 1.189946 187 187 187
-0.108175 0.803265 2.258583 96 97 96
-0.015050 0.898813 -1.462022 118 116 117
0.409857 1.413004 0.574643 180 180 180
-0.416511 0.845520 0.640566 51 51 51
0.204180 1.854060 -0.254775 197 197 196
0.207960 1.733521 1.087687 196 196 196
-0.085717 1.105190 2.223609 173 173 173
-0.352086 0.985102 1.116150 77 76 76
-0.390185 0.770432 -0.136724 67 67 67
-0.479081 1.136669 -0.552473 141 142 141
-0.148650 1.868163 -0.400599 202 202 202
0.424842 1.216425 0.408896 172 172 172
0.090715 1.227099 1.879863 167 168 167
0.257243 0.890757 -0.916791 146 146 146
-0.237284 1.687641 1.091777 193 193 193
0.391492 0.843158 0.552923 141 141 141
0.318861 1.690907 0.162037 183 183 183
0.440351 0.884598 -0.455758 163 163 163
0.063385 0.594085 -0.238022 111 111 111
0.290981 1.048849 -0.953131 146 146 146
0.238241 1.001685 -0.962865 149 149 149
-0.336163 0.601178 0.673213 102 102 102
0.300380 1.480792 -0.948531 172 172 172
-0.201610 0.892227 1.239272 77 77 77
0.426487 1.287997 0.981736 186 186 186
0.416218 1.132297 -0.845829 144 145 144
-0.147188 1.787171 1.186150 201 201 201
0.353702 0.750406 0.274896 162 162 162
-0.076031 0.685942 0.932102 109 109 109
0.216519 1.447880 1.502617 190 190 190
0.074503 1.232218 1.887786 204 204 204
0.416308 1.339795 0.485796 175 175 175
-0.349852 0.762800 0.553295 40 40 40
0.115647 0.699404 0.969837 106 106 106
-0.432250 1.507261 -0.405548 172 173 172
0.009782 0.794169 1.608810 106 106 106
0.078909 1.861241 -0.615677 199 199 199
0.323724 1.655636 0.526813 179 179 179
0.295372 1.686452 0.909338 189 189 189
0.115208 0.878926 1.359416 102 102 102
0.179908 0.028433 0.788204 84 85 84
-0.222086 0.477904 0.795559 28 30 30
-0.089536 1.513499 -1.089177 177 177 177
0.109131 0.086468 0.493153 63 63 63
-0.391332 1.481398 0.321457 174 174 174
0.165642 0.752186 -0.465492 119 119 119
-0.278487 0.972825 1.219300 69 69 69
-0.400183 1.476874 0.164002 173 173 173
0.384668 1.646654 -0.084205 177 177 177
-0.237205 1.828933 -0.313024 201 201 201
0.378399 1.522883 0.604710 181 181 181
0.306993 1.481730 1.183481 188 188 188
0.421695 0.974376 0.505362 159 159 159
-0.291254 0.803124 1.003230 79 79 79
-0.248700 -0.010439 -0.767440 100 100 100
-0.290303 1.451334 1.292496 183 183 183
-0.159399 1.530873 1.674882 206 205 205
-0.163995 1.500063 1.749786 190 190 190
0.317813 0.637743 0.572379 124 124 124
0.028993 1.555035 2.380731 189 189 189
0.369373 1.703620 -0.185791 177 177 177
0.010990 1.228695 -1.072437 75 76 76
0.406842 1.170805 -0.877461 144 144 144
-0.207232 1.675507 -0.888000 194 194 194
-0.078037 0.010134 0.702786 93 93 93
0.399429 0.741960 -0.642468 140 140 140
-0.242182 1.019801 1.359675 61 61 61
0.230448 0.981124 1.776283 181 181 180
-0.305779 1.700189 -0.686828 197 197 197
0.412860 1.439177 0.094366 175 175 175
0.000436 1.303502 2.433185 73 74 74
-0.014536 1.893913 0.504218 203 203 203
0.459686 1.341514 -0.352197 169 169 169
0.121698 0.992595 2.137529 187 187 187
0.208325 0.369230 -0.972981 140 140 140
0.178912 0.402091 0.444346 73 73 73
-0.174875 1.664442 1.410455 193 193 193
0.117094 0.444696 0.733113 61 61 61
-0.276982 0.837011 1.077756 75 75 75
-0.126544 0.717949 1.019686 103 103 103
-0.196469 0.697292 -0.510083 100 100 100
0.362256 0.848395 -0.810799 124 124 123
-0.432782 0.992319 -0.023339 137 137 137
-0.447435 1.214422 -0.847929 122 122 122
0.272895 1.787104 -0.022367 194 194 194
-0.279365 0.648486 -0.868949 143 143 143
-0.102387 0.541396 0.326400 106 106 106
0.226801 1.516022 1.818798 156 154 154
0.232814 1.036975 1.755761 183 183 183
-0.360442 0.944391 -0.857210 121 121 121
0.448712 1.041321 -0.232830 165 165 165
-0.168980 0.172816 0.686809 175 175 175
0.036147 1.258732 2.099861 187 187 187
0.402578 0.871728 0.543719 148 148 148
-0.248341 1.343737 1.507170 180 180 180
0.425181 1.134900 0.280126 171 171 171
-0.320262 0.648676 0.127951 88 88 88
-0.143333 0.752901 1.877898 88 88 88
-0.262094 1.801470 -0.346746 201 201 201
-0.225227 1.646057 1.286899 193 193 193
0.414834 0.983906 0.359622 167 167 167
0.288835 1.794361 -0.213990 192 192 192
-0.445371 1.248912 -0.115257 153 153 153
-0.280304 0.047880 0.759807 170 170 170
-0.150061 0.847934 1.237565 83 83 83
0.319457 0.777418 -0.840545 132 132 132
0.279861 1.585008 1.141402 188 188 188
0.316758 1.587272 -0.852316 178 178 178
-0.369106 0.831676 -0.798894 107 107 107
0.465819 1.296006 -0.415866 167 167 167
-0.397655 0.909075 0.347086 108 108 108
-0.429536 1.522462 -0.354661 173 173 173
-0.348476 0.833421 -0.825075 121 121 121
-0.126492 0.806629 1.606952 94 94 93
0.266381 0.721511 -0.876936 151 151 151
0.244917 0.155211 -0.589370 170 170 170
-0.327966 0.543519 -0.663884 28 28 28
-0.266414 0.684370 0.360408 85 85 85
-0.253663 0.041941 -0.807672 144 145 145
-0.312198 0.030618 0.688853 143 143 144
0.103352 0.291769 -0.873447 100 101 100
-0.163164 1.475269 -1.052336 171 171 171
0.309986 1.308823 1.348106 186 186 186
0.367525 0.715489 0.161198 155 155 155
-0.448529 1.256020 0.939332 174 174 174
0.307299 0.613830 -0.826389 150 150 150
-0.196760 1.376999 1.650299 187 186 186
0.200792 1.840429 -0.065842 199 199 198
-0.163682 0.550522 0.210412 105 105 105
0.031800 1.424932 1.749514 184 184 184
-0.304583 1.532615 1.699065 189 190 190
-0.251463 -0.015570 -0.693510 109 109 109
-0.278776 -0.005356 -0.743037 95 95 95
-0.137910 0.560576 -0.019970 111 111 111
-0.187134 0.197603 0.681771 228 227 228
0.328063 0.663866 -0.033311 101 101 101
0.083281 0.754243 1.163393 101 101 101
0.421719 1.038078 0.360463 167 167 167
0.431630 0.910510 -0.087958 159 160 159
-0.467401 1.224388 -0.297975 154 154 154
-0.205921 0.096117 -0.505512 193 192 192
0.135222 1.798475 1.063574 200 200 200
-0.334798 1.631369 0.406434 189 189 189
0.406078 1.567458 -0.644530 174 174 174
-0.227995 0.611822 -0.921129 166 166 165
-0.426840 1.161986 0.175131 148 148 148
-0.034116 1.210874 2.147737 177 177 177
-0.410261 0.762189 0.003163 60 60 60
-0.115808 1.165255 1.952897 192 192 192
0.377350 0.675313 -0.659891 136 136 136
-0.377948 0.684134 -0.516836 82 82 82
0.406075 0.844109 0.175109 168 168 168
-0.301226 0.996874 -0.929477 144 144 144
-0.010680 1.318682 2.148465 187 187 187
-0.120738 1.616211 1.520237 195 195 195
-0.333737 0.721523 -0.450059 93 93 93
-0.103400 0.858309 2.005240 8 8 7
-0.221654 -0.001627 -0.487333 114 116 115
0.013265 1.766444 1.479214 201 201 201
0.376420 1.168968 -0.914780 140 140 140
-0.348901 1.604140 0.685817 189 189 189
-0.159445 0.686792 0.913005 102 102 102
-0.187091 1.788060 0.906732 192 192 192
0.052856 1.066433 -1.003117 148 148 148
-0.018973 0.556228 -0.115727 112 112 112
0.245236 1.674567 1.145529 189 189 189
0.339226 1.556534 -0.848690 145 144 144
0.282884 1.755245 -0.476554 190 190 190
-0.398249 0.703238 -0.572399 62 62 62
-0.417712 1.378215 0.127496 164 164 164
0.417729 0.994138 0.425726 165 165 165
-0.223966 1.323394 1.626044 180 180 180
0.416004 0.809157 0.078097 154 154 155
-0.420559 1.100781 -0.839788 105 105 105
-0.338025 1.600140 0.946633 192 192 192
0.051898 0.703773 -0.385560 113 113 113
0.305020 0.426211 0.564157 143 144 144
-0.409636 1.447837 -0.778010 176 176 176
-0.290873 0.430937 -0.768887 68 67 67
0.225738 0.873739 1.663845 167 167 167
0.414879 0.776608 -0.512609 161 161 161
0.236754 0.617444 -0.906610 164 164 164
-0.187864 0.359632 -0.673971 141 141 141
0.471248 1.142440 -0.330557 168 168 168
-0.073570 0.564518 -0.130110 114 114 114
-0.406515 1.384887 0.437498 170 170 170
0.353706 1.590692 0.392889 181 181 181
-0.206449 0.964657 1.893525 161 161 161
-0.330584 1.134223 -0.952702 146 146 146
0.231645 1.696805 -0.837117 181 181 181
0.032900 1.858589 0.118209 205 205 205
-0.477478 1.039878 -0.551604 123 123 123
0.358532 0.807594 -0.800959 126 126 126
-0.422611 1.350802 0.094973 160 160 160
0.151344 0.736445 2.050206 178 178 177
-0.055660 0.678063 2.160441 34 33 33
-0.391620 1.473897 0.349252 173 173 173
-0.197502 0.354306 0.451221 64 63 63
-0.008851 1.047721 -1.380369 179 180 180
0.371569 1.235407 1.161894 185 185 185
0.415662 0.811351 -0.655257 138 138 138
-0.230175 0.899228 1.549195 75 75 74
-0.297613 0.774835 -0.858362 137 137 137
-0.087973 0.287516 0.577374 50 50 50
-0.265115 0.206041 -0.713482 143 143 143
-0.162057 1.793841 0.300807 203 203 203
-0.203529 0.356989 0.712312 46 46 47
0.131429 1.084502 1.990097 186 186 186
0.440616 1.027340 -0.742192 142 142 142
0.405006 0.922887 0.470232 156 156 156
-0.109982 1.062037 2.103528 174 173 173
0.211624 1.341761 1.657809 189 189 189
0.006396 0.840122 1.302515 101 101 101
0.263954 0.526714 -0.909991 155 155 155
0.254652 -0.004269 0.642708 104 104 104
-0.282764 0.913613 -0.914847 118 118 118
-0.467574 1.280207 -0.511461 157 157 157
-0.151769 0.747493 1.100549 96 96 96
0.309747 1.334699 1.330667 187 187 187
0.417521 1.412216 0.639518 181 181 181
0.362636 1.585893 0.313129 178 178 178
0.448589 1.415190 -0.330419 169 169 169
0.158138 0.746587 -0.504083 119 119 119
0.178629 1.829245 0.717419 197 197 197
0.198213 0.523068 0.479247 77 76 76
0.003246 1.179278 -1.053447 50 48 48
-0.374592 0.720753 0.664899 30 30 30
0.164736 1.777305 1.038175 197 197 197
0.089044 1.054967 2.216132 186 186 186
0.267571 1.776269 0.041762 174 174 174
0.170667 1.771345 1.043543 198 198 198
-0.399422 1.488782 0.144990 173 173 173
-0.324554 0.759789 0.922069 71 72 71
-0.425331 1.511550 -0.554421 172 172 172
0.455921 1.269573 0.671002 178 178 178
0.125425 1.457724 -1.087123 170 170 170
-0.399574 1.578133 -0.068997 180 180 180
-0.053907 1.784513 -0.855654 199 199 199
-0.337854 1.678099 0.126655 191 191 191
-0.376295 1.555829 0.877939 187 187 187
-0.109255 1.811243 -0.749351 200 200 200
-0.106128 1.115117 -1.027722 154 154 154
0.453174 1.377462 -0.601193 166 166 166
-0.089648 0.136273 0.583073 168 168 168
-0.097965 0.691675 0.941738 109 109 109
0.338581 0.599647 0.677864 163 163 163
0.011116 1.306089 -1.219635 147 148 148
-0.437235 1.383950 -0.118110 164 164 164
-0.323119 0.623810 -0.508454 90 91 90
0.350440 0.648521 0.709285 162 162 162
-0.185552 0.801839 1.151117 81 81 81
0.295192 1.173802 -0.984557 152 152 152
0.191327 0.936460 -0.951658 150 150 150
-0.172555 0.923452 2.035781 168 168 167
0.132294 1.512090 1.650301 195 196 196
-0.301624 1.670271 0.925339 196 196 196
-0.345785 0.719671 0.576142 27 27 27
0.027308 0.915450 2.299399 139 139 139
0.462197 1.217784 -0.264081 169 169 169
0.281396 1.594143 1.792056 166 166 165
-0.357212 1.485356 -0.870539 181 181 180
-0.445609 0.993199 0.617548 109 109 109
0.155377 0.750134 1.967031 161 161 161
-0.421364 1.380619 0.632178 177 177 177
-0.429937 0.904988 -0.052075 131 131 131
-0.031812 1.511005 2.369922 176 176 177
0.428731 1.349410 0.019584 173 173 172
0.232058 0.250682 -0.886148 90 90 90
-0.285192 0.421653 -0.822554 62 62 62
-0.090402 0.696821 0.972071 107 107 107
0.240799 1.763401 -0.658393 191 191 191
0.160524 0.384930 0.439854 70 70 70
-0.414453 0.904237 0.929833 60 60 60
0.295610 1.603760 1.785335 168 168 168
-0.482851 1.154235 0.856064 163 163 163
0.167755 0.720487 0.985472 103 103 103
-0.048419 1.312419 2.315399 179 180 179
-0.179633 1.789326 0.409401 204 204 204
-0.413017 1.380599 0.209881 166 166 165
-0.311385 0.647358 0.563163 20 20 21
-0.125524 0.979705 2.153839 184 184 184
0.380152 1.480658 0.973641 183 184 183
-0.456430 0.860981 -0.533537 63 63 63
0.148404 1.871816 -0.382972 195 195 195
0.404935 0.879175 -0.295654 146 146 146
-0.080324 1.891217 0.777968 205 205 204
-0.181264 0.063722 -0.816017 143 143 143
-0.259160 0.439979 0.737760 28 28 28
0.254780 1.113942 1.616732 183 183 183
-0.249117 0.171970 -0.618633 180 180 180
0.269444 1.724123 0.582753 191 191 191
-0.473144 1.179029 -0.584849 146 146 146
0.435496 1.125594 0.037100 170 170 170
-0.229554 1.836832 -0.201289 201 201 201
-0.325287 1.742394 -0.346229 197 197 196
-0.184025 -0.016939 -0.595048 110 110 110
0.422453 0.829088 0.669251 151 151 151
-0.011864 1.863952 0.996640 206 206 206
0.342384 0.792215 0.382631 157 157 156
0.125502 0.902072 2.237354 181 181 181
0.247924 0.688045 0.910813 110 109 109
0.367854 1.624038 0.114878 178 178 178
0.469046 1.236891 -0.606790 162 162 162
0.322454 1.247505 -0.976144 155 155 155
0.426018 1.212028 0.211039 173 173 173
-0.073875 1.126917 2.209970 188 188 188
0.287774 1.708888 0.882995 191 191 191
-0.201870 0.988933 1.444269 69 69 69
-0.417212 1.260608 1.014376 173 173 173
-0.138336 1.894514 -0.308106 241 240 240
0.434044 1.264187 0.554076 173 173 173
-0.419769 1.329686 0.182868 161 161 161
-0.355730 0.724617 0.220948 70 70 70
-0.282471 0.427692 -0.717564 45 45 45
-0.182824 1.823360 -0.502015 194 194 194
-0.283900 0.660478 0.273320 80 80 80
0.178585 0.825286 -0.908901 155 155 155
0.143253 0.768243 1.148686 125 125 125
0.317276 1.159853 1.315366 181 181 181
-0.091162 1.833696 0.417894 204 204 204
0.253114 1.080605 1.429686 175 175 175
0.078421 0.077531 -0.751692 143 143 143
0.424906 1.213936 0.244184 173 173 173
0.186364 0.297773 0.694209 125 125 124
0.426309 0.886948 -0.139246 157 157 157
0.144254 1.139410 1.944495 189 189 189
-0.240912 0.934785 1.711731 138 138 138
-0.180261 1.691408 1.369120 195 195 195
0.261108 1.731988 0.529173 191 191 191
0.370488 0.668055 -0.680523 132 132 132
-0.467322 1.245987 -0.630157 149 149 149
0.411854 1.372880 0.529093 176 176 176
-0.205029 0.839903 1.819121 60 61 60
-0.456886 1.290606 -0.795189 157 157 157
0.183230 -0.013736 -0.742545 106 106 106
0.064360 1.137852 -1.036161 154 154 154
0.039444 1.281336 1.842957 198 198 198
0.207779 0.460651 -0.612081 75 75 75
-0.252543 1.740343 0.896003 184 184 185
-0.142844 0.138193 -0.596427 192 192 192
0.223904 1.402910 1.524264 189 189 189
0.464359 1.178475 -0.274983 169 169 169
-0.001436 1.287719 2.432473 51 51 51
0.393881 0.939957 0.997399 170 170 170
-0.335076 1.631926 0.342604 189 189 189
0.460996 1.037529 0.643360 165 165 164
-0.320268 0.542256 -0.612618 34 34 34
-0.245659 0.959692 1.678311 142 142 142
0.438108 1.002676 -0.095025 166 166 166
0.012182 0.777705 2.285882 61 61 61
0.326787 0.591693 0.757195 162 162 162
0.394648 0.884216 0.294782 155 155 155
-0.008969 0.682008 0.941610 109 109 109
-0.410507 1.471061 0.816904 183 183 183
0.180191 1.400908 1.729379 129 130 130
0.258505 0.042156 0.483136 61 61 61
-0.133510 1.764909 1.351220 199 199 199
0.064019 0.522104 0.270219 111 111 110
0.435769 1.492877 -0.262483 171 171 170
-0.191528 0.883477 1.973138 147 148 147
0.336794 0.806195 0.952209 159 159 159
0.199225 1.771864 0.929852 199 199 199
0.402223 1.412193 0.515065 176 176 176
0.308963 1.737211 -0.460471 186 186 186
-0.086183 1.874163 0.846335 203 203 203
0.422689 0.924681 0.103349 167 167 168
-0.442625 0.900173 0.825335 70 70 70
-0.049258 1.934832 -0.350688 203 203 203
-0.296947 0.526568 -0.849465 120 120 120
0.247740 0.290293 -0.688910 171 172 172
0.389284 1.548422 0.126623 178 178 178
0.019474 1.807181 -0.828403 196 196 196
0.410474 1.597612 -0.315011 174 174 173
-0.462917 1.002679 0.897235 116 117 117
-0.212841 1.003232 1.413127 65 65 65
-0.281953 0.910954 1.154998 67 67 67
0.262483 1.107063 1.544415 180 180 180
-0.119633 0.403801 0.715161 156 156 156
-0.426519 1.264662 0.495968 161 161 161
-0.424173 0.993799 0.121168 135 135 135
0.289116 1.357971 1.373784 188 188 188
0.143730 0.794462 2.052968 134 135 134
0.440851 1.362600 0.718749 180 180 180
-0.310161 0.006571 0.696219 91 91 91
-0.217993 0.768795 1.050305 91 91 91
-0.418284 1.419304 0.048068 167 167 167
-0.013819 1.356340 -1.208990 169 169 169
0.388696 1.548122 -0.750838 175 175 175
-0.464199 1.145107 -0.732528 121 121 121
0.377602 0.964237 -0.842391 128 128 128
-0.117265 1.114298 1.999353 181 181 181
-0.180441 -0.017613 -0.611928 111 111 110
-0.355729 1.423500 1.094103 183 183 183
0.133546 0.925006 -0.941412 141 141 141
-0.386885 1.465849 0.506767 178 178 178
0.242239 0.930422 1.649369 175 175 175
-0.250751 0.173492 -0.790150 90 90 90
-0.018304 1.660260 -1.019390 191 191 191
-0.486420 1.136706 0.853698 160 160 160
0.085765 0.713761 1.914037 102 102 102
0.285078 1.586679 1.734314 170 169 168
0.364357 1.641392 -0.651461 178 178 178
-0.423772 1.168702 0.409616 148 148 148
0.460543 1.322409 -0.580819 165 165 165
0.184838 0.293220 -0.663605 149 149 149
-0.434067 1.499558 -0.297221 170 170 170
0.242613 1.688685 1.117149 190 190 190
0.433194 1.488986 -0.560061 169 169 169
0.415277 0.949019 0.208551 169 169 169
-0.054686 1.287741 2.352998 172 172 172
-0.469004 1.257439 -0.570043 153 153 153
0.395606 0.802737 0.599592 142 142 142
-0.255772 -0.009309 0.695807 112 112 112
-0.091768 1.221075 1.890219 195 195 195
-0.163806 1.817313 0.150613 201 201 201
0.412879 1.189147 1.044027 184 184 184
0.250996 1.058555 1.479882 172 172 172
0.271900 0.298642 -0.803402 139 138 138
-0.365131 0.707876 0.132246 74 74 74
0.222687 0.362252 -0.956374 124 124 124
-0.136871 0.732998 1.962080 88 88 88
0.456752 1.339879 -0.634287 164 164 164
-0.216942 0.670501 -0.218676 103 103 103
-0.121545 0.029768 -0.784717 119 119 119
-0.258651 1.130902 1.481599 132 132 132
-0.238811 1.570861 1.791972 198 198 198
-0.228172 0.295136 -0.673027 172 171 172
-0.421501 1.332164 0.142550 160 160 160
-0.082479 0.009848 -0.534715 153 154 154
0.252443 1.295643 1.529501 187 187 187
0.307020 1.314344 -0.991175 151 151 151
-0.327438 0.563061 0.718458 114 114 114
0.334748 0.615594 -0.521988 153 153 153
-0.324555 1.638987 1.784442 200 200 199
-0.010346 0.663622 0.879567 109 110 109
0.450309 1.043361 -0.242042 163 163 163
-0.166213 1.838234 0.041514 202 202 202
0.427882 1.145442 0.190556 172 172 171
-0.208625 0.787920 1.105047 85 85 85
0.445378 0.895790 -0.625272 140 140 140
-0.268785 1.614882 1.136386 191 191 191
0.142038 1.818208 0.920975 195 195 195
-0.306781 1.462330 -0.948858 177 177 177
0.470738 1.126462 -0.333861 168 168 168
-0.318619 0.958214 -0.902538 139 139 139
-0.266237 1.578854 1.727453 202 202 202
-0.202160 0.400358 -0.664827 114 114 114
-0.361878 0.687155 0.662668 23 23 23
0.415690 1.550372 -0.117923 175 175 175
-0.330785 1.720226 -0.401152 196 196 196
-0.095034 1.122814 2.085355 186 186 186
0.394865 1.270167 1.072560 185 185 185
0.285710 0.859663 1.091699 153 153 153
-0.345678 0.981287 1.125887 71 71 71
-0.171605 1.560553 -1.016088 182 182 182
0.249525 1.626935 1.233403 184 184 184
-0.274591 0.399135 -0.738794 73 73 73
-0.006476 1.533384 2.423493 147 149 148
-0.218522 1.447578 -1.022791 172 172 172
0.303858 0.651419 -0.049446 97 97 97
0.210544 1.763862 -0.731232 184 183 183
-0.327139 1.642595 0.612723 193 193 193
0.355967 1.574693 0.561040 180 180 180
0.337730 1.628267 0.526616 182 182 182
0.006603 1.576274 -1.092603 186 186 186
-0.269983 0.989599 1.260531 67 67 67
-0.377192 1.206275 1.152146 153 152 152
0.198808 0.954494 -0.957824 149 149 149
-0.079653 0.095721 -0.703602 172 173 172
-0.159831 -0.015462 -0.644003 110 111 110
-0.264256 1.294372 1.483950 173 173 173
-0.315264 0.101420 -0.626374 180 180 180
-0.423092 0.837073 0.024319 119 119 119
-0.010142 0.560380 -0.145941 116 116 116
-0.102831 1.291209 -1.088560 151 152 151
0.258134 1.632019 1.175709 188 188 188
-0.425227 0.842425 -0.068425 107 107 107
0.396205 1.445005 0.435931 178 178 178
-0.439034 1.024532 -0.153275 129 129 129
-0.248651 1.311302 -1.026912 161 161 161
0.130853 0.777701 2.140731 116 116 115
-0.489488 1.149985 0.779578 159 159 159
0.425815 1.313794 0.096560 172 172 172
0.112630 0.568196 -0.803465 114 114 115
0.130288 0.317145 -0.966107 134 134 134
-0.399651 1.467100 0.664932 183 183 183
0.479174 1.051843 -0.471915 162 162 162
-0.458739 1.323340 -0.288473 160 160 160
-0.359186 1.681484 -0.448864 188 189 188
0.301926 1.148043 1.347202 176 176 176
-0.036430 0.966676 -0.937258 133 133 133
0.182869 1.849924 -0.069416 200 200 200
-0.411072 1.579182 -0.234817 180 180 180
-0.255306 1.755803 0.216432 201 201 201
-0.400878 1.420328 0.387208 171 171 171
0.278209 1.714005 0.457720 192 192 192
-0.376027 1.519160 -0.805101 183 183 183
0.391592 0.748688 0.713487 147 147 147
-0.226592 0.658470 -0.185185 101 101 101
-0.447603 1.158585 -0.142382 145 145 145
-0.227099 1.023714 1.405551 62 62 61
-0.434127 1.113239 0.534578 137 137 137
0.367979 0.756034 -0.158074 107 107 107
-0.334180 0.603591 0.631500 89 89 89
-0.385448 1.638207 -0.356577 187 187 187
0.321805 0.774884 0.461304 143 143 143
0.117794 1.835500 0.915744 202 202 202
0.359824 1.194306 1.212309 183 183 183
0.401089 1.627583 -0.286249 174 174 174
-0.007771 0.615636 0.796467 112 112 112
0.195307 1.595522 1.425464 190 190 190
-0.394967 1.508205 0.720675 186 186 186
0.428656 1.251934 0.122316 173 173 173
-0.201552 -0.010456 0.755895 111 111 111
0.260206 0.640976 -0.886728 156 156 156
0.357840 0.698332 0.613836 138 138 138
-0.462748 0.994164 0.686132 110 110 110
0.203958 1.502814 1.776218 163 163 163
-0.234733 1.765236 0.220183 201 201 201
0.376753 1.517772 0.487903 180 180 180
-0.238329 1.430600 1.465113 184 184 184
0.020402 1.210093 2.240071 180 179 179
0.191716 0.479453 -0.601838 70 71 71
-0.065658 0.063123 -0.637957 161 161 161
0.260489 1.084423 1.567548 180 180 180
0.291154 0.670348 -0.851598 146 146 146
-0.210511 0.992240 1.464493 69 69 69
0.355878 0.624295 -0.651083 138 138 138
-0.231165 0.347866 -0.689525 57 57 57
-0.464903 1.188132 -0.699437 135 135 135
0.171780 1.656276 1.423314 188 188 188
-0.017882 1.893719 -0.010976 199 199 199
-0.432087 1.053989 0.035797 143 143 143
-0.367636 0.833218 0.933153 65 65 65
0.465939 1.214901 0.675943 176 176 176
0.348883 0.790951 0.355158 160 160 159
0.173744 0.408943 -0.988302 166 166 166
0.209366 1.440618 1.528380 190 190 190
-0.113510 1.857619 0.849791 203 203 203
-0.428330 1.362101 -0.000122 161 161 161
0.036086 0.719544 1.856049 103 103 103
-0.370399 1.606570 0.080197 185 185 185
-0.009837 1.092106 -1.345712 154 151 157
0.245191 0.952469 1.637215 177 177 177
-0.422610 1.138820 0.392218 145 145 145
0.438666 1.463575 -0.236398 171 171 171
0.399408 0.904255 0.465602 158 158 158
-0.440116 1.227735 0.581992 161 161 161
0.111312 1.592098 -1.045336 166 167 167
-0.216461 0.529292 0.824493 61 62 61
0.063397 1.715341 -0.950600 183 183 183
-0.475702 1.218311 0.802925 168 168 168
-0.076445 0.676047 0.887555 110 110 110
0.348853 1.190461 1.249305 183 183 183
-0.245016 0.031187 -0.472472 172 173 173
-0.274299 -0.007713 -0.741420 101 101 101
-0.155505 0.762955 1.126531 91 91 91
-0.277898 1.609960 1.793465 206 205 205
-0.264988 1.154208 1.454212 123 123 123
-0.080942 0.690871 0.951403 99 100 99
0.096127 1.849737 0.103142 203 203 203
0.029799 1.224139 2.015302 198 198 198
0.069513 0.615717 0.740771 102 102 101
0.273601 1.484238 1.683084 172 172 172
0.321285 1.547600 -0.881849 176 176 176
0.447955 1.414116 -0.280113 171 171 171
-0.080951 1.843501 0.435390 205 205 205
0.399992 1.476356 0.172585 177 177 177
0.191987 0.543269 -0.952067 172 172 172
-0.136886 0.266966 0.491586 44 44 44
-0.422089 1.284353 0.194323 158 158 158
-0.000687 1.352815 2.094332 178 178 179
-0.228544 1.534943 1.822471 174 174 174
0.235584 0.904542 1.675846 173 173 173
0.361934 0.678969 0.657171 152 152 152
-0.111686 1.823686 1.257527 203 203 203
-0.208776 0.377381 -0.974306 144 144 144
0.243909 0.177688 -0.804296 104 104 104
0.260035 1.518819 1.331020 189 189 188
-0.457749 1.156424 0.953445 165 165 165
0.400951 1.419209 0.961809 187 187 186
-0.160000 1.711690 -0.888064 197 197 197
-0.024184 1.555658 2.395869 159 156 157
-0.142711 0.539824 0.140046 107 108 107
-0.297555 1.781057 -0.167396 199 199 199
0.370772 1.328245 -0.930384 164 164 164
0.287851 0.905182 -0.907250 139 139 139
-0.147067 0.970734 2.111505 185 185 185
0.302177 0.460667 0.554972 142 143 142
0.326175 1.467087 1.125654 187 188 187
-0.165593 1.494247 1.628690 199 199 199
-0.108653 1.847699 0.085086 203 203 203
0.164164 0.712549 0.960733 100 99 100
-0.068716 1.285167 -1.093060 161 161 161
0.022296 1.873200 0.447894 203 203 203
-0.194990 0.599828 0.843946 70 70 70
-0.102299 -0.004210 -0.610164 105 105 105
-0.358570 1.676966 -0.486559 194 194 194
-0.299334 0.493007 -0.645098 35 35 35
-0.264705 0.168094 -0.753479 116 116 116
0.420386 1.421449 0.027963 173 173 173
0.311406 0.005459 -0.557633 99 98 98
0.062344 0.036148 -0.610873 111 111 111
0.414078 1.583137 -0.263139 173 173 173
0.176436 0.295810 -0.967516 127 128 128
0.458682 0.923547 0.761138 158 158 158
-0.217056 0.394011 -0.971031 144 144 144
-0.021527 1.389080 -1.166367 84 84 84
0.061744 0.633214 -0.305159 112 112 112
0.457921 1.315686 -0.262998 171 171 170
-0.421928 1.108572 0.263161 141 141 141
0.347284 1.613260 0.377198 179 179 179
-0.431296 1.081804 0.063185 144 144 144
0.250980 1.352238 1.490077 180 180 180
-0.466206 0.901632 -0.543127 82 82 82
0.220868 0.046901 -0.818988 149 149 149
-0.303840 1.071910 -0.951811 147 147 147
-0.479096 1.136678 -0.394423 140 140 140
-0.064432 0.786074 1.205663 87 87 87
0.010410 1.880481 0.041339 200 200 200
-0.123925 1.788040 -0.786703 201 201 201
-0.353309 1.520681 1.012070 188 188 188
-0.207305 0.343947 0.705483 34 35 35
-0.472179 1.178879 -0.609525 143 143 143
-0.385989 1.368762 -0.897645 174 174 174
-0.277178 1.383578 -0.999079 162 162 162
0.228947 0.986693 1.784319 182 182 182
-0.134542 0.085221 0.722473 192 192 192
0.000889 1.709060 2.368131 199 200 199
0.383821 0.802674 -0.753714 126 126 126
-0.311672 1.589982 1.747130 66 67 67
0.449153 0.993642 -0.689119 143 143 143
0.049556 0.861337 2.292120 151 151 151
0.080218 0.646049 0.825028 110 110 110
-0.013158 1.043982 -0.987919 143 143 143
0.181850 1.027751 1.916920 189 189 189
-0.256768 0.375582 -0.716960 57 56 57
-0.458142 0.992775 -0.386178 114 114 114
0.261017 0.706419 0.922800 126 125 125
0.232125 1.578640 -0.956205 171 171 170
-0.297242 1.754410 0.033314 198 198 198
-0.444730 1.437120 -0.420581 166 166 166
0.411513 0.811019 0.797048 164 164 164
-0.188575 -0.010460 0.714967 112 112 112
0.102062 1.131552 2.021102 188 188 188
0.424777 0.831437 -0.638300 142 142 142
-0.004384 1.401012 -1.196815 182 182 182
-0.236249 0.956536 1.276560 73 73 73
-0.244335 0.974891 1.286163 69 69 69
0.435320 1.151739 0.042984 168 168 168
-0.091430 1.111620 2.143695 185 185 185
0.300584 1.139550 1.347364 179 179 179
-0.313114 0.762909 0.464033 74 74 74
0.470930 1.105657 -0.344807 167 167 167
0.371697 1.564250 0.269764 178 178 178
-0.308263 0.803566 0.982208 76 76 76
-0.418499 1.280859 0.430938 160 160 160
0.368668 1.459796 -0.871367 173 173 173
-0.164286 0.154342 -0.597981 195 195 195
0.356552 1.687030 0.009138 178 178 178
0.180736 0.815982 1.640991 91 90 90
0.442744 1.133912 0.986377 184 184 184
-0.376884 1.452419 1.013803 184 184 184
-0.179705 1.751728 1.192927 199 199 199
-0.055559 1.241379 2.373049 157 158 157
0.265811 0.601231 0.850525 136 136 135
-0.210936 0.856631 1.828936 81 81 81
0.232658 0.810733 1.107784 150 150 150
0.141782 0.994979 2.066476 187 187 187
-0.066124 1.741151 -0.911550 196 196 196
-0.303933 0.893198 1.106931 64 64 64
-0.417538 0.852149 -0.165625 63 63 63
0.430298 1.414205 0.829414 184 184 184
-0.352198 1.579959 -0.792539 187 187 187
-0.255462 1.763218 0.174518 200 200 200
0.097732 -0.000786 0.689848 101 100 100
-0.086784 0.871865 1.428330 97 97 96
0.311484 1.669353 -0.744341 181 181 181
0.367620 1.574711 -0.774084 177 177 177
0.324089 0.464424 0.620519 152 152 152
-0.078033 0.563740 0.534773 85 84 84
-0.009718 0.777536 -0.549863 119 119 119
-0.266127 0.139481 -0.758136 153 153 153
-0.293873 1.660112 0.970362 196 196 196
-0.398710 0.827622 -0.738425 67 67 67
0.026969 1.117749 2.381373 146 146 146
-0.340852 0.681558 0.808149 58 58 58
0.489829 1.124551 0.807564 178 178 178
0.434623 1.090653 -0.787360 144 144 144
0.232694 1.286919 1.623599 187 187 187
0.270713 1.179014 1.463204 180 180 180
0.261677 0.448087 0.755434 138 137 137
-0.129837 0.916120 -0.934373 134 134 134
0.454179 1.313583 -0.224422 171 171 171
0.210417 1.727324 1.119268 194 194 194
-0.258865 0.492303 -0.920776 143 143 143
0.236676 0.327597 -0.918624 120 120 120
0.165382 0.709697 -0.329042 110 111 110
0.199131 1.314729 1.729780 188 188 188
0.425713 1.216928 0.215528 173 173 173
0.260471 1.041721 1.544001 177 177 177
-0.209663 1.481304 1.792150 29 30 29
0.309705 1.555133 -0.892297 165 165 165
-0.259855 0.816734 1.073241 79 79 79
0.398750 1.144374 1.095518 182 183 182
0.199021 1.776970 0.912870 198 198 198
0.233641 0.744751 0.978541 120 120 120
0.075861 1.846125 0.981149 204 204 204
-0.299625 1.776316 -0.315793 199 199 199
0.147228 -0.014182 0.553414 112 112 112
0.330066 1.733785 -0.033293 186 186 186
-0.265784 1.771708 -0.464498 201 201 201
0.166559 0.177380 0.684932 125 126 125
-0.380200 1.062870 -0.882031 126 126 126
0.268354 1.429984 1.672953 138 138 138
0.109771 1.546854 1.594800 203 203 203
-0.090854 0.359688 -0.819795 73 73 74
-0.274412 0.124970 -0.749089 169 169 169
-0.157736 -0.013802 0.618145 113 113 113
0.422762 0.908356 0.573783 154 154 154
-0.089689 0.752881 1.762266 103 103 103
-0.453086 1.374189 -0.574531 160 160 160
-0.409875 0.922949 0.213419 127 127 127
-0.308167 0.728061 -0.206657 93 93 94
-0.152009 0.916206 1.402961 88 88 88
-0.468291 1.238631 -0.616853 148 148 148
-0.133004 1.041828 -0.996830 150 150 150
0.459137 0.993067 -0.639534 147 147 147
0.411131 1.412807 0.931055 186 186 186
0.241590 1.301666 -1.031149 163 163 163
0.234866 0.197124 0.524757 115 114 115
0.109585 1.126181 -1.030138 151 151 151
-0.276754 0.585689 -0.882315 142 142 142
0.463041 1.225376 -0.723805 157 157 157
0.420456 1.028432 0.274769 168 168 168
0.266240 1.727366 0.440455 194 194 194
0.415175 1.554722 -0.584395 172 172 172
-0.316648 1.670903 0.724448 197 197 196
-0.239789 0.918781 1.700878 129 129 129
-0.187041 1.597914 1.448230 175 176 175
0.402687 1.403816 0.435119 177 177 177
0.105487 0.415819 -0.929967 128 128 127
0.339148 1.583711 0.972411 187 187 187
0.263740 0.830472 1.089967 155 155 155
0.478866 1.163150 -0.472063 163 164 163
-0.253575 1.042277 1.361976 63 63 63
-0.316449 1.663615 0.685479 195 195 195
0.080903 0.432429 0.559822 54 55 55
0.280384 1.628961 -0.857041 179 179 179
-0.319012 0.676357 0.223490 81 81 81
-0.406277 1.400541 0.316236 168 168 167
0.387209 1.235463 1.110123 185 185 185
-0.108509 -0.013533 0.562422 111 111 111
-0.175035 0.019363 0.788446 159 158 158
-0.340659 1.201842 -0.964186 152 152 152
-0.078150 0.984627 2.277081 143 143 143
0.036261 1.929193 -0.387276 199 199 198
-0.338349 1.726989 -0.108746 187 187 188
0.260384 0.874947 -0.911318 145 145 145
-0.407144 1.593082 -0.315933 181 181 181
0.137613 0.570850 -0.629700 78 80 79
-0.209696 1.175582 1.742337 180 180 179
-0.105276 0.180276 -0.769436 158 158 158
0.045114 0.780990 2.284237 119 120 119
-0.242291 0.051844 -0.813288 146 146 146
0.444799 0.969903 -0.352269 161 161 160
0.371930 1.247174 -0.939833 150 150 150
0.043303 0.551883 0.432975 111 110 110
-0.143134 0.719766 2.086399 114 115 115
0.258129 1.752013 0.681790 191 191 191
0.451075 1.129730 -0.182310 168 168 168
0.468709 1.221852 -0.327247 169 169 168
0.127282 0.063088 0.735405 111 111 111
-0.026346 1.921146 -0.418591 188 188 188
0.284433 1.712198 0.630013 187 187 187
-0.235512 1.522904 1.730522 48 47 48
-0.116666 0.394556 -0.964385 144 144 144
-0.001496 1.734639 2.346765 197 199 200
0.052003 1.878142 0.018270 204 204 204
-0.442028 1.073192 -0.137273 136 136 136
0.417292 0.909085 0.554225 149 149 149
-0.054301 1.237472 2.379856 157 157 157
-0.370526 1.258441 1.154684 171 171 171
-0.419604 0.999990 0.185869 134 134 134
0.251462 0.678234 0.458575 115 115 115
-0.221320 0.438497 0.766545 39 39 40
-0.222689 1.532732 1.677953 199 199 199
0.242040 0.259609 0.522202 121 123 122
-0.439177 1.310592 0.914585 176 177 176
-0.213168 1.392024 -1.039267 169 169 169
-0.185776 0.613118 0.381458 96 96 96
0.369392 0.739498 -0.135796 105 105 105
0.409067 0.878473 -0.742793 132 132 132
-0.203002 0.012153 0.466137 88 88 89
0.081033 1.007286 2.280336 181 181 181
0.423678 1.430268 0.786071 183 183 183
0.390086 1.587313 0.024916 177 177 177
0.102479 1.066153 -1.006702 150 150 150
0.121622 1.073564 2.018025 183 183 183
0.065302 1.146846 2.199919 191 191 191
-0.333582 0.642376 0.602065 21 22 22
0.064510 1.872896 0.892508 202 201 201
-0.414528 0.972795 0.218621 132 132 132
-0.395916 1.533399 0.058658 177 177 176
0.377540 1.674319 -0.119141 175 175 175
0.422435 1.054970 0.307971 168 168 168
-0.452121 0.912258 0.780719 78 78 78
-0.255612 1.080661 1.619559 158 158 158
-0.167365 0.893574 1.284119 85 86 86
0.107359 1.326350 -1.093258 163 163 163
-0.337037 0.933841 -0.878210 131 131 131
-0.344734 0.693276 0.172994 77 77 77
0.017505 0.528946 0.087196 110 110 110
-0.387188 0.880956 0.424723 62 63 63
-0.158172 0.105850 -0.820107 142 142 142
-0.444399 0.844674 -0.562727 58 58 58
0.013089 1.069479 2.370465 82 82 82
0.204855 1.848448 -0.168154 198 198 198
-0.422601 0.903370 0.909603 61 61 61
0.167124 0.485139 0.793597 62 63 62
-0.355532 1.651995 0.059504 188 188 187
-0.416889 1.338054 -0.867158 174 174 174
0.297346 1.332216 1.365733 187 187 187
0.237646 0.027719 -0.470591 134 134 133
0.257714 1.803642 -0.353178 192 192 192
0.137798 0.701025 0.949645 106 106 106
-0.068192 1.337981 1.796599 186 186 186
-0.101971 1.521384 -1.080433 176 176 176
0.411805 1.359676 0.461835 176 176 176
0.296541 1.694188 0.608448 185 185 185
-0.210763 -0.013845 0.694690 113 113 113
0.426066 1.217892 0.203795 170 170 170
-0.134635 1.847938 0.583647 204 204 204
-0.164963 1.208209 -1.053273 160 160 160
0.448540 1.235228 -0.135856 171 171 171
-0.024871 1.917681 0.684034 204 204 204
-0.072531 0.646557 0.823051 111 111 111
-0.072740 1.857249 -0.640901 202 202 202
0.206905 0.837767 1.723721 160 160 160
0.249078 1.621227 1.246849 188 188 188
-0.181803 0.553387 0.120963 107 107 107
0.022717 1.750020 1.487596 200 200 200
0.113890 1.814806 1.091692 201 201 201
-0.024062 1.879810 -0.574670 198 198 198
-0.027906 1.758634 1.477490 198 198 198
0.034823 0.540324 0.004035 112 112 112
0.018914 0.714144 -0.400007 113 113 113
-0.069140 0.523725 0.134987 109 109 108
0.447467 1.259724 0.614609 175 175 175
0.041993 1.864388 1.130576 255 255 255
0.128547 0.243807 0.498146 54 53 54
0.436973 0.875403 0.659413 158 158 158
0.452041 1.292413 -0.748133 161 161 161
-0.144351 0.935656 2.184087 179 179 179
-0.166788 1.823892 0.587513 204 204 204
-0.409858 1.520790 -0.044999 174 174 174
0.024726 1.877459 1.270037 206 206 206
-0.463688 0.982209 -0.625565 91 91 91
-0.307106 1.745450 -0.393169 197 197 197
0.239688 0.985687 1.715188 181 181 181
-0.467973 0.994272 0.708319 109 109 109
-0.386412 0.847732 -0.776905 94 94 94
-0.275195 0.416192 -0.862037 82 81 82
0.010652 1.258503 1.874413 203 203 203
-0.308539 0.466851 0.561157 114 114 114
0.232795 1.059451 1.751962 185 185 185
-0.281518 1.435686 1.675540 134 134 135
0.398412 1.301668 -0.898172 162 162 162
-0.400307 0.910663 0.293942 117 117 117
0.407775 0.948273 0.423561 158 158 158
-0.450381 1.281912 0.679651 171 171 171
-0.099900 1.863180 0.533308 204 204 204
0.206584 1.792267 0.188872 201 201 201
-0.325618 1.698534 -0.591273 196 196 196
-0.029285 0.521759 0.351854 110 110 110
-0.272905 0.963378 -0.935242 149 149 149
0.120539 1.358644 1.773859 187 187 187
0.128830 1.320497 -1.087644 167 167 167
0.066692 0.746471 1.755930 104 104 104
0.087265 0.805994 1.591678 106 106 105
0.429514 1.060605 0.461777 167 167 167
0.022829 1.185049 2.167437 192 192 192
-0.143321 0.776499 2.008764 35 35 35
0.368045 1.542386 0.574212 182 182 182
-0.157226 0.900790 2.187993 131 131 131
0.397283 0.886346 0.279511 165 165 165
-0.396349 0.706414 -0.541337 76 76 76
0.218008 0.518906 -0.950268 163 163 163
-0.185490 1.267723 -1.057583 164 165 164
0.415847 1.573326 -0.412082 171 171 171
0.106100 1.009774 2.167641 188 188 188
-0.323775 1.698095 0.153437 195 195 195
-0.131810 0.861537 1.516570 100 100 100
-0.090639 0.784429 -0.751838 76 76 76
-0.054889 1.441681 1.741395 198 198 198
0.452629 1.247582 0.632115 176 176 176
0.083594 0.700033 1.973719 102 102 102
-0.151540 0.022182 -0.497578 163 163 163
-0.109884 0.557295 -0.778526 86 86 86
-0.173523 1.627774 1.447817 192 192 192
0.436248 1.087218 0.020415 170 170 170
0.246672 0.199954 -0.644672 172 172 172
-0.367165 1.459010 1.032652 184 184 184
0.428350 1.258889 0.492371 173 173 173
0.260526 1.692667 -0.794494 182 182 182
-0.063864 0.701743 1.019477 107 107 107
-0.422579 0.919390 -0.272496 81 81 81
-0.391754 1.517739 0.721271 186 186 186
-0.413695 0.781435 -0.643690 45 44 44
0.115116 1.862641 -0.492518 193 193 193
-0.278064 0.767523 -0.324040 105 105 105
0.089800 1.920461 -0.308536 255 255 255
-0.379680 1.104336 1.129913 133 133 133
0.428722 1.054255 0.132073 170 170 170
0.439026 1.370847 0.733166 182 182 182
-0.455762 1.093903 -0.257403 133 133 133
0.165340 0.805371 2.076123 175 175 174
0.444098 1.058400 -0.746104 143 143 143
-0.215168 1.835853 -0.351907 201 201 201
-0.257666 0.396443 0.487597 50 50 50
-0.247515 0.959258 1.657355 141 141 141
-0.419187 0.844371 0.654719 53 53 53
-0.390959 1.327146 1.054425 178 178 178
0.022904 1.210822 2.164316 185 185 185
0.190751 0.517731 0.820787 64 64 65
0.444722 1.061121 -0.174018 162 162 162
0.218682 1.329166 1.635571 188 189 188
0.424587 1.103540 0.328928 167 168 167
0.006584 0.660458 -0.353765 114 114 114
-0.139250 -0.011572 0.633654 110 110 110
-0.422547 1.206962 0.313634 150 150 150
-0.208973 0.154444 -0.573208 188 188 188
-0.419686 1.005623 0.485629 115 116 116
0.205889 0.589618 -0.935065 171 171 171
-0.049058 1.874177 0.905984 204 203 203
-0.381474 1.651739 -0.413079 187 187 187
0.330598 1.686739 0.123679 182 182 182
-0.160392 1.481197 -1.053069 169 169 169
0.365110 1.565056 0.686126 184 184 184
0.365777 1.561955 -0.792610 175 175 175
0.424745 1.108883 0.270831 171 171 171
-0.125422 0.679059 -0.768785 87 88 87
-0.004259 1.798964 -0.842760 198 198 197
0.402411 1.540687 0.023970 177 177 177
-0.275609 1.757722 -0.495192 199 199 199
0.251980 1.205118 1.596395 186 186 186
-0.146430 1.845065 0.796432 202 202 202
-0.178985 1.607333 -0.977688 190 190 190
-0.421485 0.902635 -0.224298 88 88 88
0.384712 0.746919 0.633568 141 141 141
-0.467771 1.176419 -0.663289 137 137 137
0.455250 1.344001 -0.686137 164 164 163
0.303319 1.584981 1.749121 170 170 170
0.115661 1.873840 0.644155 199 199 199
-0.388986 0.851585 -0.366691 80 80 80
0.001945 1.890196 0.483633 202 202 203
-0.464845 1.230425 -0.278509 153 153 153
0.465221 1.294878 -0.485010 166 166 166
0.063371 1.288190 1.826873 197 197 197
-0.478253 1.048879 -0.540389 126 126 126
-0.264182 0.619373 0.858423 70 70 70
0.203793 -0.016309 -0.708540 108 108 108
0.270936 1.604945 -0.895843 177 177 177
-0.325867 0.713679 0.878654 70 70 70
0.464258 1.287724 0.796502 180 180 180
-0.184915 0.695233 -0.901004 167 167 167
-0.380002 1.635226 -0.546781 190 189 189
-0.034716 1.418405 2.340341 177 177 177
0.024197 0.847529 1.450716 107 107 106
-0.021412 1.235667 2.160307 177 177 177
0.365971 0.824306 0.355321 162 162 162
-0.095412 0.311292 -0.816177 122 122 122
0.117097 1.460450 -1.092041 169 169 169
-0.167413 1.495160 1.597144 247 247 247
-0.115049 1.581058 1.555736 194 194 194
-0.469147 1.030957 -0.405093 125 125 125
0.179837 0.740073 -0.370608 118 118 118
0.224886 1.103038 1.780527 187 187 187
0.419074 1.562727 -0.221279 172 172 172
-0.456328 1.304282 -0.240488 159 159 158
0.021089 1.413448 1.758095 194 194 194
-0.308326 0.500938 -0.661613 29 29 29
0.440056 1.055322 0.550027 164 164 164
0.438877 1.352133 -0.091325 172 172 172
-0.156868 1.872142 -0.135262 201 201 201
-0.260487 0.557677 0.829647 52 52 52
-0.029385 1.238252 2.411562 90 90 90
0.158107 0.754763 2.190025 123 123 123
0.160360 0.896749 2.183323 178 178 178
0.163048 1.812880 0.522706 198 198 198
0.186072 0.263260 0.685578 136 136 136
-0.048346 1.525894 -1.111862 181 181 181
-0.341668 0.790041 0.374166 71 71 71
-0.477451 1.066874 -0.577906 128 128 128
-0.468918 1.227194 0.754211 169 169 169
0.205079 0.777658 -0.904947 162 162 162
0.036059 0.571627 -0.193701 115 115 115
-0.351888 0.618206 -0.557059 79 79 79
-0.328894 1.396439 -0.952049 171 171 171
0.171700 -0.007098 0.741189 110 110 111
-0.337356 0.682048 -0.073005 95 95 95
-0.109528 -0.013355 -0.695864 103 103 103
0.289816 0.442078 -0.727487 143 143 143
-0.240655 1.771690 0.717896 203 203 202
0.129289 0.297103 -0.954353 125 125 125
0.296160 1.694303 0.436397 177 178 177
-0.034184 0.515278 0.235992 111 111 111
0.413190 0.898361 -0.282773 151 151 151
0.125778 0.324864 -0.964678 133 133 133
-0.010979 1.677952 2.350228 184 184 184
0.151977 1.716525 -0.896490 183 183 183
-0.019900 1.622423 2.372349 180 180 180
0.415595 1.566886 -0.468866 172 172 172
-0.105074 0.919551 2.253023 159 159 159
-0.275503 1.713102 -0.736584 198 198 198
-0.095301 0.122694 -0.760526 168 168 168
0.041154 1.386138 2.387089 188 188 187
0.381934 1.247686 1.123201 186 186 185
-0.440666 1.405517 -0.708487 171 171 171
0.171753 1.787610 0.335984 201 201 201
0.450099 1.116447 -0.184959 144 144 144
-0.140353 0.848217 2.160910 108 106 107
0.118138 0.376133 0.473892 64 64 64
0.089490 1.870685 0.007773 201 201 201
0.158812 1.858513 -0.413560 192 192 192
0.212435 0.852843 1.751344 167 167 167
0.333023 0.790811 -0.831238 132 132 132
0.030697 1.539658 2.374753 188 188 188
0.443982 0.953568 0.613480 158 158 158
-0.072102 0.975455 2.281849 135 135 136
0.377393 1.513245 0.496546 180 180 180
-0.421483 1.102231 0.278847 142 142 142
0.424486 1.085472 0.258848 169 169 169
0.252443 1.295643 1.529501 187 187 187
0.128035 0.759692 2.242292 148 149 148
-0.245924 0.886300 1.171411 70 70 70
0.419038 1.283797 0.334844 174 174 174
0.437826 1.371801 0.717075 182 181 181
-0.120370 1.599290 -1.029002 188 188 188
-0.450348 1.119495 -0.204915 139 139 139
0.446877 1.095662 -0.161022 167 167 167
0.448733 0.899547 0.712265 162 162 162
-0.216957 1.380412 1.595228 184 184 184
0.352672 0.677797 0.766108 162 162 162
-0.001338 1.874272 1.214868 207 207 207
0.308083 1.621023 -0.830338 178 178 178
-0.129963 1.037420 2.036664 179 179 179
-0.472259 1.185098 0.877137 167 167 167
-0.374884 1.406809 -0.892072 177 177 177
0.231167 0.920755 1.226499 159 159 159
-0.069589 1.874427 0.509012 202 202 202
-0.218351 0.910745 1.853749 140 140 140
-0.063589 1.835973 0.334112 205 205 205
-0.046356 0.861557 2.292596 59 59 59
0.369592 0.661350 -0.672383 134 134 134
0.387918 1.538061 0.836596 184 184 184
0.289385 0.439468 0.524088 134 134 134
-0.244388 1.116775 -0.997162 154 154 154
0.452319 1.293950 -0.194634 171 171 171
-0.026894 1.050203 -0.992175 145 145 145
-0.259361 1.064567 1.575525 150 150 150
0.355208 1.586078 0.890523 184 184 184
0.437205 1.138045 0.499050 169 169 169
0.273711 1.485596 1.320814 188 188 188
-0.127920 0.932232 2.209179 178 178 178
0.093489 1.853329 0.483612 200 201 200
-0.345701 0.604277 -0.704754 30 30 30
-0.426123 1.097647 0.160359 142 142 142
-0.270872 -0.006048 -0.597231 109 109 109
0.214999 0.433110 -0.971057 156 156 156
-0.421510 1.414799 0.838443 181 181 181
0.456394 1.315777 0.837691 182 182 182
0.217867 0.409275 -0.661211 129 129 129
0.379206 0.773668 0.219118 164 164 164
-0.466855 1.199854 0.892528 170 170 170
0.223979 -0.012979 -0.547876 111 111 111
-0.315746 0.520743 0.589206 117 117 117
0.325511 1.105113 1.274553 177 177 177
-0.411655 1.376892 0.571992 176 176 176
0.319541 1.163001 1.311448 181 180 180
0.329439 1.628974 -0.778885 179 179 179
0.343940 1.636109 0.225729 180 180 180
-0.097459 0.076691 -0.574704 177 177 177
0.243832 1.637497 1.245536 188 188 188
0.073802 1.682311 1.507795 199 199 199
-0.419065 1.481953 -0.713319 176 176 176
-0.452514 1.301940 0.721137 174 174 174
-0.425627 0.911202 0.593809 78 78 78
0.376839 1.048971 1.115882 177 177 177
-0.113126 1.843274 -0.611920 202 202 202
0.437294 0.837667 -0.597415 145 145 145
0.459212 1.336290 -0.508580 166 166 166
0.101994 1.679613 -0.973648 178 178 178
-0.159256 -0.010488 -0.585771 109 109 109
0.413362 1.562782 -0.123485 174 174 174
-0.307046 0.570744 -0.829976 118 118 117
0.303736 1.526363 -0.917191 172 172 172
0.470170 1.156433 0.909370 184 184 184
0.405644 0.921000 0.263102 160 160 160
0.432001 1.123515 0.461517 169 169 169
-0.232602 1.764802 -0.679192 193 192 192
0.078061 1.005565 2.285946 179 179 179
-0.471651 1.134611 -0.647742 134 134 134
-0.086357 0.000093 -0.654567 109 108 108
-0.216460 1.845704 -0.272096 201 201 201
0.450574 1.401447 -0.647042 165 165 165
0.439146 1.231564 -0.832125 154 154 154
0.197969 0.273706 0.478985 44 44 44
0.439072 1.034509 -0.068272 167 167 167
0.067871 0.563473 0.460886 114 114 114
-0.428732 1.408872 -0.057062 165 165 165
0.415846 1.312343 0.371972 176 176 176
0.418740 1.533364 -0.111532 175 175 175
-0.317651 1.666623 0.436251 196 196 196
0.030682 0.525215 0.359879 112 112 112
0.425309 1.032551 0.174953 165 165 165
0.071196 1.688889 -0.977969 182 182 182
0.263214 0.086630 0.740232 170 170 170
-0.378389 0.787270 -0.184007 74 74 74
-0.214957 0.962601 1.869928 156 156 156
0.304299 1.511477 1.142221 182 183 183
-0.435057 1.415799 -0.129721 164 164 164
0.215840 0.743239 0.989682 115 115 115
0.310165 1.338517 1.325804 187 187 187
0.436362 1.004357 -0.739427 139 139 139
0.205438 0.842043 1.625541 142 142 142
0.054821 0.734132 1.146538 95 95 95
0.253892 0.333353 0.660711 162 162 162
-0.170214 1.806969 -0.662863 202 202 202
0.081852 1.470412 1.728934 180 180 180
-0.248635 1.590393 1.289824 184 184 184
0.437099 1.044250 0.542312 165 165 164
0.266782 1.670411 1.038130 190 190 190
0.165200 1.358809 -1.070384 168 168 168
0.007041 1.175248 -1.300395 159 160 159
0.101348 1.078032 2.117494 188 188 188
-0.036389 1.033304 -0.982894 145 145 145
-0.023333 1.904651 0.544791 203 203 203
0.424092 1.104088 -0.810940 143 143 143
-0.048268 1.178699 2.134723 178 179 178
0.400537 0.931621 -0.788315 130 130 130
0.115101 0.008579 -0.770306 94 94 94
0.050306 1.672820 1.529671 199 199 199
