ply
format ascii 1.0
element vertex 1215
property float x
property float y
property float z
property uchar red
property uchar green
property uchar blue
end_header
-0.199087 -0.135604 -0.699779 180 191 197
-0.333245 0.123445 -0.487517 181 179 174
0.180837 0.222627 -0.410409 63 71 71
0.208028 -0.213443 -0.119460 128 115 100
0.004059 -0.219635 -0.284610 131 113 86
-0.283002 0.273447 -0.319465 50 53 55
-0.512674 0.024594 0.036073 58 29 30
-0.069210 0.321662 0.132549 205 216 230
-0.612035 -0.146163 -0.149673 157 163 165
0.145587 0.336642 0.130811 185 189 185
-0.342481 -0.136461 0.104220 98 95 89
0.513546 0.124800 0.433251 185 151 75
0.012769 -0.057259 0.044325 194 179 168
-0.274924 -0.088414 -0.264101 205 117 142
-0.358303 -0.167748 -0.207912 154 104 113
0.344617 0.231021 0.161661 197 200 216
-0.447436 -0.164528 0.010096 67 65 65
-0.621190 0.041750 -0.353616 96 93 86
-0.174666 -0.173678 -0.698895 192 200 206
-0.409447 0.215252 -0.456898 81 80 78
0.236261 -0.012545 0.180367 110 106 92
-0.623887 0.247998 -0.346627 77 78 67
0.025552 -0.244296 -0.206015 115 109 96
-0.141834 -0.233930 -0.300724 54 46 41
-0.468654 0.175119 0.154494 181 191 187
-0.298564 -0.004230 0.126209 124 138 155
0.382293 0.423727 0.666905 0 0 0
-0.535526 0.029849 0.058867 8 7 8
-0.525390 0.018825 0.030281 121 133 105
0.523061 0.136451 0.318563 151 122 67
0.149128 0.001077 0.129930 142 143 150
-0.606734 0.003110 -0.323953 127 125 122
0.506600 -0.010294 0.064651 171 179 186
0.109359 -0.057736 0.172304 117 102 83
0.445132 -0.157167 0.257741 162 140 112
-0.429379 0.037331 -0.080118 76 75 70
-0.616308 0.094260 -0.309499 122 122 114
-0.574015 0.259408 0.056412 112 111 105
0.243734 0.037513 0.588927 149 146 121
0.061514 -0.076058 -0.412880 152 164 171
-0.645227 0.206965 -0.277843 78 78 67
0.253729 0.274789 0.514359 211 188 144
0.511148 0.120046 0.461374 180 151 83
0.216097 -0.084229 0.220295 1 1 1
0.139701 0.003775 0.157171 117 114 117
-0.145519 -0.189294 -0.702929 186 197 205
-0.011464 -0.075498 -0.010028 153 143 135
-0.614938 0.037720 -0.277171 42 42 43
0.426576 0.256594 0.183629 188 190 186
-0.166213 -0.291663 -0.732697 186 197 203
0.494240 -0.049871 0.211160 166 154 133
-0.274564 -0.180253 -0.394158 84 69 59
-0.628826 0.106354 -0.231859 68 71 77
0.563511 -0.087141 -0.222859 179 177 172
0.551874 -0.021900 -0.052818 186 184 181
0.507794 -0.010219 0.542361 134 114 83
0.138420 -0.034039 0.158748 39 33 28
-0.409148 0.064100 -0.474386 62 70 73
-0.538200 -0.236460 -0.218939 151 136 94
0.495120 0.070829 0.726063 173 146 99
-0.225129 -0.247692 -0.334665 21 15 12
-0.358204 0.000920 0.164013 61 45 40
0.234630 0.261127 0.776011 173 146 99
-0.142825 -0.285645 -0.723542 186 197 203
0.152983 -0.091585 -0.402543 37 22 9
-0.383735 -0.101514 0.157300 5 2 2
-0.582603 -0.056832 -0.146287 131 135 137
-0.050091 0.060380 0.196642 116 101 80
0.232968 0.008490 -0.435589 201 203 207
0.227127 -0.036366 0.755393 142 136 111
0.254845 0.383991 0.649869 108 93 64
0.566461 -0.065090 -0.004683 186 178 181
-0.476058 0.130870 0.166446 187 193 187
0.298314 -0.132967 0.402535 113 97 67
-0.350214 -0.192981 -0.071845 135 124 110
0.480925 -0.133717 0.403931 181 163 140
-0.434881 -0.055151 0.106328 60 74 77
-0.369766 -0.185096 -0.047551 126 122 108
0.113122 0.027917 0.181267 214 217 209
-0.606506 -0.160960 -0.129956 115 116 97
-0.478642 0.249974 0.111354 92 95 97
-0.325938 -0.194753 -0.078345 139 125 113
0.250807 0.115246 0.061006 112 96 85
0.507527 0.371669 0.526672 183 161 111
-0.351041 0.267546 -0.319467 67 65 66
-0.608040 -0.145156 -0.086387 93 99 90
0.220799 -0.205902 -0.066613 163 148 132
-0.430692 -0.220099 -0.209674 178 168 152
0.508026 -0.023814 0.507062 143 120 89
-0.615958 -0.101497 -0.129968 179 184 183
0.503572 0.037055 0.050707 183 188 200
0.386559 -0.114190 0.297277 122 105 76
-0.323987 0.300017 0.124397 198 202 196
0.244474 -0.138065 -0.391601 146 141 136
-0.472566 -0.041042 -0.131862 251 251 251
-0.173205 0.046450 0.171476 198 204 207
0.250406 -0.081992 0.195828 125 113 91
0.518870 0.104361 0.368514 161 139 86
-0.590519 0.160040 -0.413833 213 212 211
-0.547031 0.008059 0.119696 96 98 102
-0.190040 -0.164304 -0.344088 131 131 133
0.282956 -0.007479 0.042046 204 197 176
0.562807 -0.105061 0.064589 199 198 195
0.502961 0.164444 -0.326534 168 173 176
-0.481818 0.263412 0.058317 108 104 98
-0.324851 0.201746 -0.512029 199 202 201
-0.220110 -0.290390 -0.740849 185 196 202
-0.154574 -0.043905 -0.403084 89 88 106
0.211833 0.162623 0.191142 144 152 144
0.494237 -0.011714 0.199584 160 153 136
0.553013 0.275244 0.635585 173 146 99
-0.412752 -0.230909 -0.391705 59 56 55
-0.640130 0.228354 -0.077158 58 59 61
-0.513692 -0.123311 -0.075321 62 75 85
0.399487 0.309510 0.155707 179 182 189
0.511236 0.400593 0.523726 173 146 97
0.372986 -0.139090 -0.394292 156 155 156
0.526907 -0.028760 -0.339781 218 217 214
0.296079 -0.137133 0.009933 191 191 187
-0.545702 0.016592 0.051644 57 55 56
0.243617 -0.220460 -0.160376 141 129 114
-0.634846 0.073185 -0.015835 111 113 110
0.557128 0.022174 -0.148285 189 191 195
-0.394606 0.054229 0.197950 188 183 167
-0.404683 -0.035810 -0.080753 55 65 72
-0.214987 -0.198476 -0.381441 44 33 21
-0.318232 -0.206378 -0.274104 65 68 74
-0.515959 0.228576 -0.395979 127 135 143
-0.190710 -0.251630 -0.303464 92 87 79
0.537918 -0.123193 0.169332 156 162 162
-0.452295 -0.237058 -0.258202 125 114 99
0.558984 0.060375 0.062852 173 177 181
0.406083 -0.195370 0.025385 132 120 106
0.206639 -0.234886 -0.209974 119 113 105
0.146676 0.000450 0.136271 141 138 142
-0.401573 -0.219748 -0.069858 103 107 94
0.133658 0.023284 0.132886 144 141 141
0.497250 0.051961 0.067423 165 162 157
-0.058862 -0.169146 -0.362240 81 84 78
0.326352 -0.109037 0.027976 133 122 100
-0.260629 -0.102675 -0.343007 208 206 201
0.282255 -0.127628 0.432040 117 102 75
-0.502924 -0.139452 0.058682 59 66 67
0.072782 0.205312 -0.463277 9 8 3
0.502764 0.303533 0.658631 173 146 99
0.147812 -0.207522 -0.088965 88 80 71
-0.265156 -0.090075 -0.297242 196 175 176
-0.346964 -0.192075 -0.069275 132 118 103
0.282321 -0.056808 0.013631 112 107 80
0.505245 0.227345 0.193921 161 133 81
0.458702 0.402340 0.760506 173 146 99
0.255372 0.272356 0.494849 212 187 146
0.563567 0.035508 0.018191 204 204 212
0.463808 -0.129437 0.243299 138 113 82
0.457214 0.145425 0.850846 173 146 99
0.226452 -0.092017 -0.410216 245 248 247
-0.615803 -0.230283 -0.197038 96 90 71
-0.328617 -0.079958 -0.257710 159 86 104
0.511110 0.099100 0.461836 175 144 84
-0.534217 -0.072104 0.144011 73 74 77
-0.550111 -0.084002 0.150746 161 171 172
-0.637333 -0.148512 -0.194168 92 106 107
0.190306 -0.078369 0.165606 40 33 34
-0.488322 -0.152794 0.028012 97 99 93
0.458975 0.015098 0.763481 173 146 99
0.129622 0.033563 -0.436462 42 27 10
-0.287438 -0.105932 0.152319 81 68 44
-0.625204 0.174617 -0.313992 48 53 53
-0.373226 -0.220416 -0.073783 106 107 105
-0.599900 -0.200430 -0.298306 113 105 92
0.556721 0.027190 -0.063494 214 210 200
0.337324 0.394946 0.716833 173 146 99
0.537769 -0.208203 -0.057559 125 109 98
-0.085014 0.273365 0.146442 212 186 204
-0.476381 0.105813 0.164887 192 198 195
0.488289 0.212304 0.683338 173 146 99
0.461224 0.257240 0.184096 191 191 187
-0.411527 -0.227267 -0.103781 112 111 96
-0.148138 0.177692 0.175686 222 222 222
0.235029 0.114298 0.784023 158 158 130
0.494615 -0.128488 0.436394 154 138 117
-0.352078 0.129962 -0.490241 203 202 196
0.069957 -0.010510 -0.429704 70 79 89
0.286271 0.055645 0.029681 212 206 194
0.499875 -0.177526 0.087351 149 142 132
-0.630607 0.134620 -0.228578 73 74 76
0.562687 -0.021654 -0.239382 209 211 213
-0.036742 -0.345299 -0.713488 186 197 203
0.551152 0.134722 -0.151178 174 189 210
-0.015315 -0.110312 -0.067890 93 95 100
0.308958 -0.192475 0.033846 112 96 82
0.083848 0.026247 -0.440666 58 61 65
0.332399 0.160843 0.183737 171 163 151
0.347611 -0.110938 0.540248 144 133 113
-0.315927 -0.144543 -0.263778 113 105 109
0.107541 -0.089555 0.093084 179 149 160
0.210669 -0.143883 0.189063 5 4 4
-0.292200 -0.215388 -0.737834 190 199 203
0.228358 -0.002886 0.192280 119 114 99
-0.387412 -0.069666 0.118214 70 8 18
-0.055289 0.087511 -0.463299 90 85 84
-0.509902 -0.040812 -0.127155 207 200 186
0.068086 -0.211636 -0.375689 125 140 131
0.512326 0.152945 0.450537 192 161 88
-0.607791 -0.013858 0.132930 30 36 40
0.499811 -0.183907 -0.360582 110 106 101
-0.419968 -0.160864 -0.299351 27 27 30
-0.141674 -0.191043 -0.320611 49 51 50
-0.518233 -0.182902 -0.126477 45 42 28
0.528798 -0.003112 -0.376887 202 193 189
-0.109040 -0.198691 -0.343422 61 58 43
0.525444 -0.193302 0.030222 97 89 76
-0.249522 -0.142663 0.087909 133 110 83
0.088291 -0.213056 -0.374071 43 51 71
0.481135 0.133570 -0.351922 138 137 132
0.235695 -0.202102 -0.038593 149 134 120
0.522465 -0.043860 0.327960 162 136 95
-0.519253 0.036841 -0.373732 119 110 100
0.137402 -0.054362 -0.412905 36 22 8
-0.417145 -0.231754 -0.131790 86 67 63
0.528310 -0.027429 -0.357183 209 207 205
-0.350592 -0.221867 -0.081468 126 126 116
0.238429 0.267465 0.811002 173 146 99
-0.474542 -0.009443 -0.067173 205 203 205
0.522264 -0.047257 0.733696 159 156 142
0.244008 0.359704 0.618306 0 0 0
0.383900 0.284635 0.158656 185 187 189
-0.077763 -0.073927 -0.420759 154 167 175
0.011312 0.118905 0.198094 195 201 206
-0.525234 -0.131987 -0.098684 79 93 107
-0.594564 0.341735 -0.082971 55 66 86
0.141775 -0.119468 0.074086 172 155 152
0.137258 -0.113873 0.051476 170 145 133
0.252863 0.238794 0.151657 109 41 47
0.360858 -0.192471 -0.265487 105 102 104
0.557210 -0.021434 -0.149353 192 200 211
-0.496410 -0.046045 -0.086029 19 23 27
0.465091 -0.090232 0.674153 159 156 142
0.330887 -0.199759 -0.262537 110 105 105
0.149712 -0.172594 -0.072295 75 61 48
-0.480739 -0.045626 -0.144675 250 250 249
0.414311 0.225505 -0.420063 96 102 94
-0.266922 -0.200982 -0.131327 150 140 119
-0.230272 -0.212669 -0.175675 134 126 106
0.497138 0.132147 0.082201 118 90 74
0.382034 -0.129096 0.244167 114 98 77
0.206478 -0.006661 0.174112 47 43 15
-0.257625 0.345093 0.106703 190 200 215
0.344936 0.004444 0.778764 88 64 20
-0.186912 -0.272020 -0.728562 186 197 203
0.529331 -0.234704 -0.333415 41 41 37
0.217560 0.004493 0.867076 144 140 112
-0.273883 0.257273 -0.367364 57 56 57
0.515805 -0.054633 0.408388 162 138 100
0.240258 0.097545 0.643799 157 157 130
-0.614460 -0.096396 -0.161186 156 158 154
0.456891 0.327010 0.771737 173 146 99
0.252626 0.225097 0.517659 218 194 146
-0.222324 -0.282568 -0.310302 78 75 70
0.168166 -0.192996 0.013775 136 122 106
-0.430815 -0.127601 -0.415766 127 128 124
0.520046 0.200871 0.232741 152 136 115
0.578694 0.030070 -0.011133 192 195 203
0.448501 0.383244 0.464984 115 98 61
0.250257 0.373377 0.554559 108 93 64
0.313454 -0.016909 -0.004615 214 221 236
0.235495 -0.012443 0.674202 145 139 114
-0.320835 0.010805 0.165570 85 77 88
0.133454 0.058617 -0.445038 37 24 10
-0.247102 0.253979 -0.383937 55 53 55
-0.212951 -0.083070 -0.398287 89 93 102
0.224663 -0.186096 0.070821 108 93 77
-0.637248 0.243439 -0.194921 59 62 57
-0.632864 0.227606 0.054206 89 90 79
0.257596 0.396914 0.724145 173 146 99
-0.510915 -0.186978 -0.063618 74 76 73
0.350721 -0.077986 -0.408428 251 251 251
-0.404287 -0.258451 -0.368612 7 8 12
-0.573444 -0.035335 -0.077185 105 105 98
-0.217285 -0.127102 -0.349355 99 95 91
-0.605352 -0.124681 -0.205750 160 165 153
0.215427 -0.182909 0.093772 106 92 78
0.497869 0.424646 0.645019 173 146 99
0.160782 0.174337 -0.470851 31 28 16
-0.538175 -0.044212 -0.173681 103 113 118
-0.638309 0.156487 -0.019710 71 72 67
0.454373 0.057285 -0.437619 147 145 129
-0.624868 -0.151443 -0.197429 163 173 169
0.536543 0.245536 0.131357 158 150 135
-0.602233 0.269691 0.043188 105 108 106
0.547214 0.216895 -0.066120 188 188 181
0.514727 -0.137316 -0.346857 24 26 32
-0.555852 0.012179 0.124515 157 152 133
0.464717 0.190946 0.716308 173 146 99
0.282838 -0.084599 -0.007613 200 201 200
-0.022242 -0.263878 -0.267841 128 113 99
-0.510120 0.075709 -0.439364 38 43 44
-0.633490 0.316448 0.025969 87 90 82
-0.160928 0.053128 0.175753 206 213 223
0.500787 -0.087577 0.518160 148 144 133
-0.604380 -0.105126 -0.250099 118 117 119
0.204844 -0.181866 -0.355888 172 162 162
0.138332 0.328010 0.135090 200 203 200
-0.267784 0.212555 -0.410212 69 62 55
0.454959 -0.117080 0.511164 142 131 105
-0.350322 -0.083458 -0.258839 154 84 105
-0.078355 0.076634 0.209618 205 208 203
0.213798 -0.113437 0.164182 61 50 32
0.241264 -0.121086 0.020026 115 123 97
0.003109 -0.152466 -0.394439 94 108 110
0.252962 0.201288 0.510331 221 191 145
0.291183 -0.149578 0.321901 90 77 55
-0.508917 0.015101 -0.414975 84 83 80
-0.172087 0.145021 -0.484365 117 119 117
0.458516 -0.229725 -0.127541 127 113 98
-0.087212 -0.175484 -0.393017 124 127 129
-0.610953 -0.158045 0.032751 76 79 67
0.391914 -0.123814 0.263163 120 101 78
0.266207 0.063637 0.159208 182 171 147
-0.117003 0.337901 0.082749 147 146 141
-0.258279 -0.248781 -0.179391 122 113 104
-0.605448 -0.138476 0.067791 128 123 109
0.194451 0.006216 0.127517 110 109 112
-0.189375 -0.252035 -0.200089 123 111 100
0.255334 0.273781 0.495346 210 186 143
0.271174 0.103618 0.076183 182 170 153
0.539739 0.290558 0.082088 153 154 139
0.384540 -0.166296 -0.295238 20 21 28
0.403464 0.071961 -0.443989 135 136 126
-0.227324 -0.252513 -0.318442 69 69 67
-0.390440 -0.220772 -0.196209 154 145 140
0.066304 -0.070178 0.104408 193 170 181
-0.380034 -0.286975 -0.346018 1 2 2
-0.508377 -0.012992 -0.392409 115 127 85
-0.369447 -0.107902 -0.260905 180 126 127
0.054294 -0.018422 -0.429862 68 78 84
0.215121 -0.069020 0.247510 2 3 1
-0.602667 -0.162565 -0.240113 154 166 159
-0.497573 -0.166001 -0.176651 86 75 56
0.255764 -0.019998 0.061302 225 217 202
-0.373103 -0.012557 0.193256 115 85 44
-0.471294 -0.146343 -0.150780 22 25 23
-0.570227 0.010049 0.127318 123 122 110
-0.155099 -0.097082 -0.110692 165 168 187
-0.609382 -0.090223 -0.223627 251 252 253
-0.483463 0.008088 0.181906 171 175 170
-0.311058 -0.254509 -0.242954 46 46 48
-0.395926 0.106638 -0.486116 45 48 56
0.514888 0.005999 0.729823 173 146 99
0.020970 -0.076437 -0.012565 122 108 99
-0.638326 0.028663 0.049950 76 93 122
-0.551266 0.348306 -0.068460 45 53 64
-0.631532 0.083714 0.080999 71 70 57
0.210478 -0.197609 -0.329616 10 9 16
0.053317 -0.163854 -0.344379 36 37 38
0.506393 -0.094668 0.502898 171 168 156
0.524840 -0.148937 0.164324 92 88 73
0.449530 -0.184915 0.087939 124 111 96
-0.045331 0.001228 0.184271 107 68 84
-0.082463 -0.096937 -0.360593 29 33 38
0.066536 0.111875 0.201090 187 198 203
0.135304 0.138859 0.198421 186 184 189
-0.223010 -0.192725 -0.074522 118 90 68
-0.446592 -0.229203 -0.230644 164 151 128
-0.089508 -0.324847 -0.717135 186 197 203
-0.398482 -0.308551 -0.363329 6 7 7
-0.449187 -0.268286 -0.228113 84 87 70
-0.234710 0.003150 0.183583 124 116 105
-0.167103 -0.124363 -0.160743 151 144 154
-0.601934 -0.159180 -0.300590 132 130 123
0.502353 -0.208529 -0.303856 9 9 13
-0.389407 -0.059849 -0.438346 156 157 154
0.563826 -0.005816 -0.272044 211 210 211
-0.185515 -0.066761 -0.415583 96 100 97
-0.595569 -0.034933 -0.111557 24 25 34
0.253127 -0.112336 0.461767 118 106 75
0.449280 0.410211 0.598969 118 102 53
-0.480960 -0.316599 -0.371200 17 31 38
-0.072988 -0.315534 -0.703670 186 197 203
0.252187 -0.136208 0.398403 90 72 34
-0.368287 -0.203851 -0.130953 157 148 129
0.521982 0.232432 0.337253 166 131 63
-0.241263 0.283768 0.138159 197 201 207
-0.114568 0.106058 0.199116 212 218 218
0.484995 -0.032463 0.754087 159 156 142
0.128725 -0.110609 -0.070675 162 166 172
0.023173 -0.097339 -0.008125 201 197 193
0.358547 -0.039392 0.571497 99 80 47
0.435336 -0.148075 0.318592 192 167 132
0.559591 0.152164 0.035727 184 188 190
0.501470 -0.127882 0.259835 161 143 119
0.459185 0.183194 0.800463 173 146 99
-0.207142 -0.119716 -0.373897 33 32 31
0.225407 -0.120437 0.200398 87 83 72
0.331126 -0.005606 0.723436 88 64 20
0.142428 -0.078478 0.193647 50 48 37
0.564305 -0.086611 -0.032675 186 192 190
-0.013069 0.248889 0.155077 198 116 164
0.077593 0.079209 0.213250 175 180 171
-0.078207 0.111156 0.198385 209 214 214
-0.626464 -0.022447 0.033304 129 128 119
0.372557 0.398381 0.749034 173 146 99
-0.644375 0.156444 -0.276063 78 77 69
0.502375 0.031373 0.723051 173 146 99
0.557554 0.065031 -0.174049 201 203 203
0.355356 0.009316 -0.430277 143 146 149
0.509048 -0.107054 0.465546 172 163 145
-0.610199 0.018537 -0.276342 37 41 45
-0.231314 -0.102780 0.212291 66 47 24
0.096605 0.013697 -0.432892 40 25 7
0.535133 0.118311 -0.354529 154 143 118
0.020925 -0.132081 -0.343517 45 42 39
0.095544 -0.127803 -0.183885 187 189 193
-0.143584 -0.146891 -0.365376 23 20 14
0.364775 -0.247165 -0.227989 164 150 139
0.460888 0.029446 0.735186 173 146 99
-0.076279 0.230074 0.159798 210 102 146
0.468963 0.242024 0.172208 194 195 200
0.463784 -0.042142 0.767336 159 156 142
-0.470245 0.002022 0.209267 152 150 138
0.478957 0.304959 0.671855 173 146 99
0.048740 -0.174642 -0.330675 80 77 62
0.003219 -0.258146 -0.251047 141 127 108
0.301592 -0.172742 -0.334364 85 94 108
0.504334 -0.059593 0.245460 160 153 151
-0.460462 -0.187791 -0.069892 76 78 73
-0.263247 -0.265036 -0.239942 10 11 13
0.328748 -0.160475 0.229772 142 122 100
0.322754 -0.142850 0.243096 168 168 164
-0.361054 -0.076260 -0.258356 157 86 105
0.210500 0.030600 -0.442337 188 189 189
0.566216 -0.107115 -0.022398 182 189 192
0.471907 -0.228457 -0.350771 151 140 135
-0.537373 -0.002893 -0.007922 202 207 212
-0.086871 -0.341918 -0.706189 186 197 203
0.225227 -0.028080 0.780358 144 140 114
-0.211745 0.193857 -0.493411 55 46 35
0.406158 -0.223562 -0.103010 132 121 110
-0.229019 -0.241374 -0.738990 185 196 202
-0.498921 -0.046770 -0.137477 228 230 226
0.321247 0.029411 0.013336 200 187 170
-0.256966 0.211794 0.156293 207 210 211
-0.613975 0.271928 -0.305841 91 92 86
0.530451 -0.077071 -0.361630 173 165 149
0.303552 -0.002398 0.164958 202 186 155
0.573848 0.034229 -0.032924 180 167 147
0.496644 -0.173694 -0.317639 16 16 25
-0.471774 0.040018 0.126531 184 188 182
0.253270 0.230865 0.509794 226 199 154
0.244665 -0.081186 0.197015 113 103 84
-0.298378 0.001156 0.220471 121 118 102
0.294793 -0.196540 -0.334730 71 71 71
0.566174 -0.102387 -0.022453 182 188 193
0.023896 -0.097849 -0.353137 15 12 17
0.093067 0.227514 0.166371 186 204 217
-0.508782 -0.018401 -0.368842 119 126 131
0.509280 -0.203124 -0.043052 29 25 23
0.213452 0.244009 0.152790 227 227 224
0.099218 0.250512 0.143805 214 214 213
0.525744 0.289725 0.292718 144 120 79
-0.227513 -0.005907 0.226717 102 88 67
-0.187254 -0.171180 -0.706528 189 199 203
0.468188 0.333536 0.128966 142 146 150
-0.055071 0.037916 0.204772 112 93 65
0.041834 0.135037 -0.467463 34 32 23
0.505601 0.082352 0.698780 173 146 99
0.578961 0.196978 -0.055267 166 195 245
0.533246 0.083661 0.128257 107 108 99
-0.510485 0.254641 0.065419 110 105 97
-0.315279 -0.261349 -0.331951 51 47 38
-0.616487 -0.017983 -0.173256 16 21 30
0.138102 -0.166482 0.148323 2 2 2
-0.443984 -0.178121 -0.037593 81 80 76
0.557805 -0.029655 0.116691 167 179 189
0.375597 -0.124761 0.259007 115 100 76
0.315219 -0.037623 0.005723 199 202 203
0.299171 -0.246004 -0.276074 86 75 66
0.325995 -0.144825 0.329750 156 129 97
-0.602837 0.358959 -0.028051 52 58 70
-0.553956 -0.154520 0.052751 42 42 32
0.009797 -0.218962 -0.376283 33 37 46
-0.418209 0.098972 0.182137 193 195 186
0.258962 0.307241 0.464607 164 141 104
-0.262455 0.203717 0.158681 208 211 211
0.532264 0.214584 0.132684 101 96 85
0.485454 -0.137158 -0.379588 205 209 204
-0.477344 0.286700 0.050697 85 87 90
0.551731 0.134652 -0.343805 159 150 130
0.468012 0.319297 0.679847 173 146 99
-0.424184 -0.227409 -0.142929 112 101 85
0.119754 0.094175 -0.454471 58 69 74
-0.626287 -0.100751 0.041090 170 168 154
-0.499922 0.275918 0.075747 163 182 182
0.553817 0.020727 -0.120932 185 186 187
-0.511625 0.107032 -0.394165 122 120 113
0.259423 0.255639 0.449634 203 177 139
0.509860 0.179653 0.223063 160 132 80
-0.135490 -0.169130 -0.366588 82 88 88
0.463019 0.242121 0.749095 173 146 99
-0.388427 -0.191079 -0.067651 120 120 107
-0.136365 -0.126566 -0.344779 155 157 160
0.497122 0.034538 0.072405 160 161 164
0.457666 0.302523 0.160934 179 181 180
0.557121 0.081226 -0.199455 214 214 215
-0.615550 -0.186409 -0.256612 126 126 120
0.175949 -0.241506 -0.226126 109 98 94
-0.358129 0.242480 -0.413916 74 69 63
0.455606 0.104704 0.804852 173 146 99
-0.357753 -0.171158 -0.295501 103 100 96
-0.089187 -0.307747 -0.723020 186 197 203
0.226419 0.185293 0.171658 164 171 167
-0.206864 0.125031 0.185576 210 213 210
0.292764 0.097967 0.145050 197 189 169
0.305730 -0.124497 0.450796 124 108 80
0.127308 -0.253440 -0.299525 102 97 83
-0.159734 0.210690 -0.431268 48 47 47
0.190869 -0.176483 -0.380174 173 166 165
-0.243962 -0.211951 -0.390916 79 62 53
-0.342956 -0.101444 -0.247833 138 72 90
-0.560184 0.167961 0.077645 106 101 90
0.555568 0.181484 0.076804 166 179 191
-0.411447 0.024824 0.206070 174 167 146
0.558393 -0.068802 -0.130518 184 181 177
-0.505831 -0.028664 -0.098368 207 207 211
-0.522711 -0.169878 -0.092705 41 45 25
0.332036 0.380224 0.622554 108 93 64
0.564902 -0.154461 -0.216937 189 189 193
-0.545373 -0.134545 -0.071468 40 46 49
-0.622638 -0.024361 -0.207796 161 182 210
-0.633120 0.297904 -0.112355 47 52 57
-0.205847 -0.088041 -0.392870 87 89 71
-0.313103 -0.276769 -0.267485 54 52 42
-0.631092 0.067617 -0.117202 122 126 122
0.235345 0.128745 0.849264 158 158 130
-0.453177 -0.231494 -0.267503 24 23 25
-0.273200 0.192528 -0.489245 65 53 43
0.294259 -0.092574 0.000921 198 199 195
-0.071821 0.338516 0.110149 157 157 153
-0.442189 0.152316 -0.503066 24 33 42
0.557858 -0.067744 -0.135294 187 185 185
0.519286 0.340459 0.373727 152 128 79
0.560152 0.068256 0.046531 181 186 189
0.287325 0.196612 0.167012 205 207 203
-0.618693 -0.080642 -0.078319 155 156 148
0.206129 0.064545 0.162155 135 122 111
0.382463 0.147897 -0.464408 69 67 51
-0.624388 -0.014450 -0.190918 138 147 154
0.210321 0.171094 0.164372 195 204 209
0.258358 0.314241 0.465574 159 137 100
0.305203 -0.194940 0.016367 119 107 94
-0.288158 -0.020628 0.138320 130 115 77
0.494099 -0.028332 0.208045 164 155 135
0.128085 0.052806 -0.441567 38 25 10
0.301113 -0.093923 0.636464 159 156 142
0.206748 -0.182593 0.094107 104 90 74
-0.509324 -0.006616 0.126071 126 131 140
0.561924 0.061750 -0.314450 191 190 186
0.065209 -0.038979 -0.421892 104 109 114
0.082236 0.259969 0.155846 196 206 212
-0.507039 -0.024080 -0.386762 115 124 71
-0.359566 -0.258825 -0.198858 122 120 103
0.326319 0.073819 -0.012463 200 207 216
0.050228 -0.075122 -0.414519 190 198 204
-0.256363 -0.065022 -0.433339 143 136 128
-0.333245 -0.220275 -0.265630 77 73 71
0.404301 -0.160109 -0.382209 167 165 166
0.365096 -0.172978 -0.332922 21 24 30
0.283635 -0.121874 0.466064 129 114 87
0.560423 -0.103142 0.101127 188 186 181
0.268381 -0.270899 -0.325630 90 93 88
0.287306 -0.084202 0.019199 175 165 123
0.530191 -0.128975 -0.373951 112 102 80
-0.487699 -0.224633 -0.210839 171 166 142
-0.169553 0.162212 -0.488804 67 66 56
0.256206 0.230671 0.477164 233 202 163
0.549390 0.310600 0.667385 173 146 99
0.287173 -0.051541 -0.417478 246 246 247
-0.444554 0.182078 -0.512044 26 34 40
0.490462 -0.224996 -0.111887 141 125 111
0.353308 -0.122021 0.477884 124 115 89
-0.082037 -0.316569 -0.717611 186 197 203
0.242586 0.126762 0.602867 166 166 134
0.223679 -0.020770 0.793510 148 144 116
0.470241 0.059901 0.725527 173 146 99
0.113880 0.005221 -0.429394 36 23 7
0.333910 0.203586 0.182080 194 181 143
-0.473849 -0.172674 -0.016963 52 51 44
0.350552 0.227895 0.177110 125 106 74
-0.332277 -0.171554 -0.310223 119 122 114
0.331342 0.033100 0.001278 65 63 61
-0.225075 -0.053831 -0.400012 187 178 152
0.099765 -0.037416 -0.418988 32 19 7
0.223660 0.157096 -0.469728 37 34 20
0.579014 0.028676 -0.010719 187 187 180
-0.006156 -0.074186 -0.364666 34 29 35
0.178307 -0.109873 0.179405 72 58 45
-0.462748 -0.073579 -0.064488 6 7 6
-0.465548 -0.166546 -0.169160 50 46 38
0.318889 -0.033953 0.009248 113 118 118
-0.183568 -0.221670 -0.320753 99 103 108
0.064418 -0.198685 -0.291645 101 102 116
0.214169 -0.131602 -0.427127 250 250 248
-0.461750 0.007255 -0.001234 140 134 131
0.528068 -0.120872 -0.376417 114 103 80
0.211371 0.047926 0.139673 135 132 142
-0.388905 -0.215094 -0.158743 117 97 82
0.392543 -0.241739 -0.320342 120 111 96
-0.096496 -0.134403 -0.405041 98 107 116
0.247138 0.192567 0.391635 97 85 62
-0.161806 -0.243473 -0.298152 78 73 69
-0.584517 0.089251 -0.315011 85 81 74
0.318638 0.152868 0.130651 11 11 16
0.106719 0.051130 0.210219 112 105 85
0.382216 -0.167904 -0.338201 34 37 51
-0.618444 -0.085559 -0.228254 245 248 248
0.568121 -0.177290 0.016603 133 128 116
0.369528 -0.167302 0.196772 153 135 112
-0.488288 -0.060272 -0.009399 4 3 3
0.275388 0.370509 0.546374 108 93 64
0.241322 -0.149871 0.093281 13 10 5
0.238160 -0.102946 0.616406 114 92 52
0.476265 -0.028517 0.766425 159 156 142
-0.552436 0.239838 -0.405303 134 134 152
-0.199172 -0.248049 -0.306322 95 89 85
0.488478 -0.179130 0.121277 138 126 109
-0.486413 -0.269542 -0.395091 33 43 45
0.514005 0.379062 0.464063 182 156 100
-0.214595 -0.228539 -0.370236 33 24 14
-0.073063 -0.331641 -0.722691 186 197 203
-0.614172 0.366087 -0.004883 48 50 54
0.505425 0.065330 0.517499 135 116 78
-0.483548 -0.048379 0.140069 79 83 87
-0.605353 -0.002273 -0.364594 94 92 81
-0.258857 -0.198041 -0.116473 133 121 103
0.565466 0.179295 -0.048180 201 203 208
-0.561212 0.025655 -0.373703 147 140 119
0.293542 0.029666 0.116714 157 146 137
-0.509283 0.047725 -0.429636 41 44 46
0.286263 -0.068191 -0.008010 200 200 200
0.513071 0.109832 0.438381 181 146 79
0.497857 -0.169083 -0.321900 16 17 23
0.114429 -0.199261 -0.376660 126 127 123
0.527956 0.098661 0.200318 83 83 64
-0.238279 -0.097602 -0.331846 222 221 221
-0.611119 -0.147547 -0.161665 158 164 163
-0.202742 0.232340 -0.486377 164 171 179
0.527873 0.053466 0.218477 85 84 64
-0.494912 0.092300 0.100897 181 184 176
-0.170602 0.213404 -0.420032 50 49 49
0.264267 -0.217750 -0.138565 158 144 129
-0.205049 -0.065848 0.204819 15 9 6
0.142718 -0.251720 -0.291401 57 84 78
-0.612378 0.117555 -0.326772 247 247 246
-0.620870 -0.052608 -0.345039 137 139 136
-0.511469 0.140692 -0.409394 41 44 49
-0.555170 0.026565 0.115157 114 111 96
-0.163130 -0.127689 -0.395559 81 79 76
0.549790 -0.251947 -0.215521 130 117 104
-0.337270 -0.212207 -0.392006 73 57 47
-0.622170 -0.039291 -0.342007 147 146 143
0.313832 -0.149040 0.019367 185 184 183
-0.064732 -0.097839 -0.358917 32 34 37
-0.525069 -0.226947 -0.195586 112 103 80
-0.123991 -0.169267 -0.189182 137 112 113
0.305235 0.090586 -0.453646 169 168 159
-0.065393 0.283152 0.143916 209 218 231
0.188194 -0.211404 -0.133680 160 155 130
-0.475508 -0.023965 -0.074991 225 223 225
-0.409377 -0.264115 -0.192357 128 127 103
-0.607128 -0.063366 -0.244483 127 128 136
0.320069 -0.045654 0.204563 150 157 167
0.449472 0.283788 0.163639 185 186 184
-0.488095 -0.162290 -0.299413 32 32 32
0.027907 0.045404 -0.448137 87 82 76
-0.031934 -0.100055 -0.075944 138 137 142
-0.564146 0.208092 0.064597 109 108 98
0.558929 0.265411 0.648329 173 146 99
-0.524759 -0.051563 -0.170704 149 153 139
0.488656 0.031973 -0.418624 145 141 125
-0.130308 -0.128347 -0.388760 125 132 141
0.551528 0.061224 -0.084462 207 203 197
-0.022079 -0.262191 -0.260711 139 126 110
0.558889 0.434548 0.659093 0 0 0
0.551441 0.183102 -0.122384 184 190 196
0.547240 0.352722 0.650453 173 146 99
0.540796 0.280146 0.011611 160 161 148
-0.641706 0.231045 -0.038984 63 69 70
0.193953 -0.043539 0.165771 67 65 54
-0.311176 -0.221387 -0.400243 81 64 54
0.283521 -0.151460 0.003421 197 194 188
-0.201550 -0.061228 0.093868 171 140 132
0.279698 0.055780 0.155047 195 184 157
0.291769 0.330529 0.091152 166 168 169
-0.269816 -0.104245 -0.257531 200 104 134
-0.311880 0.195478 -0.476173 66 57 44
-0.306416 0.195069 -0.475688 66 56 42
0.497863 -0.137361 0.128777 172 164 154
-0.639644 0.163573 0.006614 66 71 77
-0.321605 0.183341 -0.504713 159 161 158
0.341341 -0.130262 0.422398 145 124 96
-0.319864 -0.269005 -0.241439 82 80 61
-0.129235 -0.109990 -0.191007 121 125 123
-0.199172 -0.286187 -0.748610 185 196 202
0.170633 -0.139761 -0.396545 249 249 248
0.507677 0.146678 0.481376 164 142 98
0.126901 -0.214560 -0.343896 122 121 107
0.037270 0.250799 0.152933 193 113 162
0.513496 -0.116777 0.417777 182 170 148
0.445982 0.421938 0.641668 173 146 99
0.294896 -0.134902 0.220212 104 105 100
-0.610707 0.185405 0.069249 98 98 96
-0.347347 0.044057 0.109432 103 100 80
0.361468 -0.080051 0.747021 159 156 142
0.263048 0.255550 0.390530 109 93 73
-0.573827 -0.127732 0.103944 164 159 146
-0.625296 0.012775 -0.204189 105 110 109
-0.410799 -0.056956 -0.440424 152 154 150
0.523585 0.369676 0.626731 173 146 99
-0.182130 -0.186182 -0.340030 89 86 87
0.262669 0.009035 0.060714 212 208 199
-0.313290 -0.265737 -0.267974 72 64 54
0.245176 0.177598 0.560766 205 179 130
0.214187 -0.165972 0.195987 2 2 2
-0.614920 0.335087 -0.102330 49 58 78
0.235036 0.171892 0.837966 158 158 130
0.253187 0.330944 0.089870 164 169 169
0.122630 0.209126 -0.453952 21 23 15
0.280827 0.045768 0.097172 165 156 142
0.486333 0.457916 0.628323 173 146 99
-0.639667 0.163427 0.034059 153 171 210
-0.638060 0.203782 -0.108511 61 62 78
-0.134291 0.230510 -0.497256 145 157 164
-0.433553 0.198218 -0.515811 19 28 36
-0.477689 -0.180126 -0.408501 66 65 59
-0.475309 0.090321 0.148061 193 199 198
-0.602307 -0.159814 -0.280607 121 115 109
0.202648 -0.203247 -0.049881 157 141 125
-0.278869 0.110011 0.186872 213 211 210
0.295195 -0.044605 -0.013075 198 204 205
-0.516220 0.230649 -0.411561 126 130 139
-0.141595 -0.041832 -0.389158 134 139 153
0.245371 0.137929 0.522649 177 163 124
0.336905 -0.174617 -0.269434 103 100 102
0.389345 -0.005138 0.728559 88 64 20
-0.186281 -0.306876 -0.730562 186 197 203
0.474987 -0.189247 -0.360860 163 156 145
0.035748 -0.094240 -0.066172 210 208 210
-0.084002 -0.314674 -0.719717 186 197 203
0.322953 -0.196471 -0.322604 18 21 29
-0.641788 0.256459 -0.060988 55 58 59
0.306507 -0.143314 0.222119 126 125 118
-0.449178 0.094934 0.181611 182 187 179
-0.552032 0.238442 -0.409412 135 142 152
0.298948 -0.056046 -0.010039 202 205 205
0.269983 0.358004 0.444939 100 89 61
0.339447 -0.132160 -0.408078 250 250 250
-0.293064 -0.168672 -0.305138 134 131 133
-0.130572 0.072293 0.209814 186 184 175
0.257183 -0.193605 -0.289183 136 128 127
-0.293873 0.191185 -0.495204 67 55 44
-0.023545 -0.099752 -0.011917 163 158 146
-0.357880 0.148507 -0.496703 171 172 168
0.238245 -0.226461 -0.275424 110 100 97
0.402658 0.158429 -0.463957 66 67 48
0.381848 0.370380 0.555724 108 93 64
0.308189 0.178596 -0.466255 56 50 37
-0.406298 0.003064 -0.062914 77 82 88
-0.635000 0.161072 -0.143892 73 75 76
0.152484 0.233032 0.150485 220 219 218
0.468465 0.384858 0.694955 173 146 99
0.484836 0.137840 0.697522 173 146 99
0.171861 -0.002897 0.192747 73 76 69
-0.419815 0.099300 0.181872 193 195 187
0.253604 0.338588 0.491234 145 124 87
-0.426283 -0.069909 0.038223 43 48 42
0.166988 -0.089933 0.119638 51 23 18
-0.308849 0.000822 0.160021 112 106 96
0.124936 0.169461 -0.470939 23 20 9
-0.461498 -0.216721 -0.171669 121 110 86
0.293247 0.399814 0.750716 173 146 99
0.154239 -0.140833 0.096596 98 78 66
-0.564278 0.312285 -0.184116 60 76 99
0.421731 0.229243 0.176188 169 165 164
0.562665 0.050817 0.016348 198 198 202
-0.508056 -0.031146 -0.377281 125 128 132
0.089357 0.215555 0.167732 186 204 217
-0.154790 -0.144752 -0.376861 83 84 83
-0.322727 -0.205203 -0.276347 78 81 91
-0.420195 -0.212279 -0.181906 193 185 172
0.573468 -0.024438 -0.055742 190 195 192
0.288804 0.150624 0.173769 132 125 106
0.164470 -0.252043 -0.360441 99 104 109
0.227767 -0.207325 -0.074484 160 146 131
0.566542 -0.150593 -0.015120 137 137 124
-0.002861 0.176104 0.177115 203 106 148
0.526790 -0.037736 -0.334281 211 211 208
0.215112 -0.147539 0.189321 4 3 3
-0.586863 -0.063336 -0.173667 126 129 136
0.461152 0.121306 0.764764 173 146 99
-0.427084 -0.025542 0.025930 14 18 32
0.559983 -0.112660 0.108814 184 182 180
0.268588 -0.053112 0.235852 69 64 39
-0.365983 0.257921 -0.355746 74 71 68
-0.035570 -0.080767 -0.038945 166 157 145
-0.569829 -0.161192 0.037042 22 24 17
-0.032974 -0.078358 0.079733 106 105 99
-0.625802 -0.108880 0.051308 165 163 152
0.335939 -0.154544 -0.378821 178 176 177
0.526677 0.229281 0.270851 160 125 51
0.519359 -0.185860 -0.298713 107 101 100
0.554614 -0.235604 -0.257462 148 140 128
0.430133 -0.247876 -0.349234 142 137 130
-0.638456 0.225945 -0.142351 61 62 67
0.560898 -0.096530 -0.172356 200 202 207
0.030996 -0.105116 -0.041811 177 170 158
0.074485 -0.184181 -0.345877 93 105 113
0.448250 -0.229997 -0.127441 133 122 109
0.202644 0.075774 -0.453922 147 150 143
-0.236781 0.227092 -0.500631 174 176 179
0.481711 0.020064 0.742174 173 146 99
-0.630054 0.078058 -0.169351 97 101 103
-0.254260 -0.135384 -0.262155 182 114 138
0.481133 -0.153001 -0.369876 174 173 165
0.051053 -0.157714 -0.332733 206 211 204
-0.346931 -0.261239 -0.378737 65 66 59
-0.307361 -0.168737 -0.301140 96 96 95
0.543550 -0.161556 -0.048888 67 60 48
-0.616099 -0.048776 0.145396 20 20 14
0.497722 0.112538 0.053752 160 157 150
-0.462927 -0.066498 0.182370 14 15 1
-0.515862 -0.163127 -0.373190 66 73 72
0.116884 -0.101540 0.044505 168 151 149
-0.447973 -0.233084 -0.394407 24 18 11
-0.604134 0.207213 0.062737 102 104 101
0.510445 -0.119867 0.517543 150 142 123
0.491075 0.108512 -0.416813 156 156 152
0.309635 -0.164268 0.207531 102 90 81
0.397245 -0.010305 -0.422874 178 187 189
-0.632545 0.019152 -0.019387 105 108 120
0.253599 0.267033 0.513419 220 196 151
-0.629319 0.088877 -0.209006 76 81 83
0.469104 0.163483 -0.330688 157 166 175
0.306561 0.151882 0.174028 170 161 140
-0.186218 -0.107193 -0.074039 204 187 186
-0.608696 0.363225 -0.014386 52 55 63
0.461992 0.216710 0.777546 173 146 99
0.240480 0.123093 0.634541 167 167 134
-0.467787 -0.168424 -0.290493 13 12 17
0.299751 -0.153874 0.009808 185 184 180
0.496104 -0.063146 0.159229 172 164 150
0.264895 -0.224317 -0.274048 99 96 97
-0.481558 -0.132208 0.113454 57 56 58
-0.581783 0.003124 -0.035889 183 115 169
-0.604053 -0.111120 -0.273981 104 104 105
-0.323599 0.366257 0.100420 200 205 213
0.253195 0.055472 0.062426 192 192 182
0.364057 -0.191326 0.047563 117 105 89
0.244663 0.028163 0.180436 141 134 114
-0.351980 -0.089723 -0.244605 147 85 103
0.478983 -0.248269 -0.283876 23 23 29
0.561359 0.112771 -0.278475 222 219 213
-0.236692 -0.095385 -0.311516 226 221 220
0.480635 -0.248831 -0.286923 24 24 30
0.256723 0.085985 0.445655 169 160 126
0.566892 -0.153040 -0.246562 175 175 178
0.169359 -0.032693 0.254524 16 13 8
0.134187 -0.067116 0.186857 14 12 11
-0.107498 -0.166939 -0.396185 141 140 142
-0.102341 0.132052 0.191134 216 220 223
-0.134231 0.233335 -0.488703 146 159 170
-0.369709 -0.141815 0.087160 91 89 85
0.204769 0.160160 0.189743 157 159 129
0.424000 -0.216897 -0.081193 131 124 110
-0.627255 -0.151460 -0.198731 160 172 173
0.135387 -0.052123 0.186935 20 18 18
-0.366466 -0.104610 0.132797 81 77 61
0.276204 -0.205555 -0.059517 137 128 115
0.501633 0.047852 0.258945 152 131 99
0.517402 0.248714 0.391176 190 150 71
-0.244743 -0.005729 -0.446263 177 175 166
0.284938 -0.141450 0.149594 135 136 129
-0.388525 -0.070938 0.118277 70 8 18
-0.190997 -0.215123 -0.719405 185 196 202
0.553822 0.035029 -0.105539 181 180 173
0.008083 0.052424 -0.450865 99 89 75
-0.278749 -0.186354 -0.724274 185 194 200
0.025057 -0.242986 -0.276423 158 139 95
0.445765 0.193323 -0.464475 50 47 27
0.038412 0.201258 -0.474476 6 5 1
-0.397101 0.348420 0.104259 73 78 81
0.247665 -0.139235 0.511366 94 87 61
0.182946 -0.030392 -0.428956 221 222 215
0.510211 0.372656 0.526159 183 161 111
0.372277 0.026038 0.827092 88 64 20
0.290342 -0.192287 0.031374 90 82 70
0.557404 0.007077 -0.167066 217 217 218
-0.337238 -0.188993 -0.059345 141 126 111
0.546705 -0.045096 0.148250 181 191 196
0.131495 0.047966 0.140440 231 230 232
-0.039546 -0.255039 -0.234792 121 109 92
-0.089463 -0.136960 -0.350763 10 10 9
-0.522515 -0.107181 0.164584 71 68 64
-0.190351 -0.170567 -0.702523 189 199 201
-0.177114 -0.213641 -0.323676 77 61 49
-0.580184 0.328292 -0.129805 55 73 97
0.465987 0.300518 0.707675 173 146 99
-0.179414 -0.070265 0.028080 150 141 136
0.496741 -0.122971 0.163912 174 164 155
-0.393284 -0.107564 -0.424013 151 148 140
0.518103 -0.108117 0.620565 159 156 142
0.148048 0.212586 -0.442604 46 48 46
0.350811 -0.143369 0.342790 174 148 113
-0.638177 0.307541 -0.001967 71 80 79
0.565203 0.105443 -0.342016 154 136 100
-0.559040 -0.033776 -0.072339 107 104 90
0.509663 0.203171 0.482998 218 188 135
-0.603710 -0.156692 -0.208170 172 175 157
0.216681 -0.238122 -0.277398 173 165 163
0.204163 0.115747 0.172286 202 207 211
0.219040 -0.204400 -0.056750 160 144 128
-0.192440 -0.003904 0.149759 143 108 115
-0.412904 -0.219699 -0.379311 15 12 10
-0.445897 -0.216517 -0.191947 207 197 178
0.207682 -0.176497 -0.317479 12 12 19
-0.490929 -0.044009 -0.081915 45 45 46
-0.348864 0.318302 0.122870 185 192 194
-0.579589 0.311912 -0.183957 67 83 108
0.185498 -0.049283 0.182050 39 33 41
0.165477 -0.160532 -0.057782 163 138 122
0.477223 -0.034167 0.727768 159 156 142
0.558399 0.178960 -0.250457 187 190 177
-0.618547 -0.058518 -0.234475 147 167 188
0.494691 -0.150831 -0.066150 78 68 57
0.093797 0.120428 0.202544 192 201 207
-0.478334 0.333047 0.106158 75 78 81
-0.304762 0.004522 -0.452044 183 182 178
-0.481425 0.257746 -0.331245 81 83 81
-0.163719 -0.099098 -0.116012 150 143 155
0.457075 -0.031014 0.854260 159 156 142
0.499384 0.266388 0.661552 173 146 99
-0.377882 -0.052065 0.117825 76 19 21
-0.149273 -0.232267 -0.182744 56 33 57
0.414250 0.106346 -0.452183 119 117 100
-0.506737 -0.069053 -0.407406 129 128 128
0.466586 0.316706 0.709378 173 146 99
0.251418 -0.159452 -0.317973 148 60 96
-0.565699 0.022849 0.034747 53 17 23
-0.475729 0.359437 0.098056 67 75 79
0.490001 -0.004640 0.730553 173 146 99
-0.423408 -0.205055 -0.289540 25 24 19
-0.319182 -0.080950 0.121930 105 92 68
0.318100 0.155231 0.128521 25 22 18
-0.616283 0.316178 -0.163875 58 66 79
0.472154 0.039175 0.733480 173 146 99
0.463517 -0.250772 -0.283963 15 16 18
-0.518555 -0.026741 -0.054501 75 74 61
-0.611591 0.165108 -0.356053 199 202 208
0.388165 -0.163748 0.220962 150 130 102
0.556681 0.152773 0.072477 160 173 182
-0.410492 -0.206515 -0.138235 132 125 102
0.559496 -0.146806 0.127570 163 159 158
0.089941 -0.087665 0.010743 193 181 175
-0.415105 -0.204299 -0.128939 105 101 89
-0.398517 0.187448 -0.510640 27 37 43
-0.505208 -0.129630 -0.346501 97 94 90
0.413577 0.133667 -0.459082 97 97 82
-0.361551 -0.259560 -0.201361 120 118 99
0.521169 -0.059275 0.714690 159 156 142
-0.558332 0.326301 -0.137621 46 61 87
0.279482 0.070116 0.039357 215 210 199
0.557712 0.112767 0.071417 153 163 168
-0.192645 0.051368 0.188697 130 124 125
0.211385 -0.009918 0.135903 44 40 39
0.177025 0.123724 0.168069 200 213 218
0.510967 -0.000465 0.470887 151 127 95
-0.363999 -0.156651 -0.206215 206 146 176
-0.572762 0.256729 0.057743 116 114 106
-0.354183 0.174268 -0.504343 200 206 206
-0.615184 -0.093975 -0.150474 160 161 157
-0.493510 -0.154233 -0.143309 38 38 26
-0.610238 0.056674 -0.325951 81 80 74
0.502407 0.155335 0.016250 198 210 223
0.131654 -0.201386 -0.051641 51 43 34
0.262413 0.146247 0.415969 157 136 102
-0.315796 -0.096731 -0.422452 184 179 168
0.051260 -0.248178 -0.274095 93 76 50
-0.474824 -0.051466 0.150158 51 30 33
-0.039700 -0.337313 -0.713694 186 197 203
-0.405223 -0.030202 0.218237 71 15 15
-0.615658 0.175995 -0.333848 151 151 160
0.198806 -0.070385 -0.415957 241 244 244
0.495110 0.180730 0.681279 173 146 99
-0.272331 0.037897 -0.459855 201 200 194
-0.414914 -0.232348 -0.230761 142 132 124
-0.406266 -0.172871 -0.021611 100 95 93
-0.599496 -0.213084 -0.290851 105 98 87
-0.583928 0.318590 -0.161156 64 80 105
-0.612591 0.038686 0.015208 125 114 83
0.119793 -0.039308 -0.417681 32 20 7
-0.611538 -0.063076 -0.237429 144 159 173
0.507590 0.000698 0.519751 137 122 98
0.390717 -0.135051 0.398242 178 154 122
0.294858 0.008552 -0.021766 190 196 209
0.318441 0.209954 0.165785 215 217 212
0.080264 -0.110470 -0.090494 177 169 160
-0.042016 -0.021964 0.135555 167 158 151
-0.337244 -0.262072 -0.376048 95 92 85
0.494374 -0.129282 0.469892 155 141 120
0.493388 0.016877 0.741036 173 146 99
-0.209362 -0.149462 -0.073080 163 134 113
-0.477286 0.258046 0.073719 92 92 92
-0.334758 -0.213528 -0.126459 113 98 97
-0.544550 -0.023263 -0.075980 122 127 139
-0.375648 -0.106590 -0.334352 224 218 211
-0.122647 -0.326797 -0.733733 186 197 203
0.569777 0.040830 -0.054462 176 186 198
0.562352 -0.159057 -0.168844 208 206 206
0.385013 0.003703 -0.427328 144 149 144
0.464583 0.403637 0.566402 113 96 68
0.149354 0.057420 0.146210 136 140 157
0.536224 0.238799 0.139034 162 153 133
0.477241 0.234203 0.173856 198 199 207
0.225140 -0.061909 0.785205 139 133 104
0.555515 0.091487 -0.170925 194 196 195
0.558249 0.013958 0.091802 159 166 170
0.539653 0.242469 0.085985 147 146 142
0.329563 0.058827 -0.000022 161 146 120
-0.165875 0.010056 -0.446727 153 162 167
0.133528 0.212364 -0.442541 39 40 37
-0.432049 -0.214033 -0.324362 1 1 2
-0.371906 -0.237603 -0.125561 119 120 106
-0.009382 -0.151743 -0.193981 193 190 191
-0.606530 0.352760 -0.046452 52 59 75
0.423025 0.372426 0.562978 108 93 64
0.164180 -0.085227 -0.425812 248 248 246
0.401732 -0.126206 -0.390934 232 233 235
-0.400643 0.066389 0.193610 192 188 176
0.219523 -0.073840 0.186505 43 48 47
0.274475 -0.074449 0.767471 114 92 52
0.234367 0.328591 0.786234 173 146 99
-0.550760 -0.045909 -0.119429 139 123 84
0.553686 -0.075470 -0.052154 184 186 178
-0.514515 0.209238 -0.436144 33 40 44
0.450048 0.025701 0.857450 173 146 99
0.380014 0.017596 0.790211 88 64 20
0.194838 0.215825 0.174684 197 211 220
0.080526 -0.069456 0.142209 65 56 67
-0.239606 0.045195 0.210052 159 157 138
0.260511 -0.134569 0.399327 96 82 54
-0.323949 0.023550 0.190011 129 126 142
-0.178409 0.208732 -0.440491 48 46 45
0.251672 0.334223 0.503624 149 128 87
0.503024 -0.102203 0.522673 154 152 141
0.456717 0.036252 0.802199 173 146 99
0.019997 -0.085806 -0.051670 203 196 194
0.249285 0.023635 0.518668 148 145 119
0.284033 0.376270 0.591131 108 93 64
-0.352955 -0.138581 0.097944 96 93 88
-0.449536 -0.221903 -0.211429 202 196 179
-0.526300 -0.111868 0.163729 33 31 30
-0.398990 0.039370 0.202345 180 175 155
0.211652 0.044605 0.222547 12 11 9
-0.434419 -0.052149 -0.443337 144 146 143
0.318012 -0.132789 -0.401457 224 228 230
0.410519 0.333840 0.124981 148 152 160
0.497130 -0.068157 0.128307 174 169 161
-0.631326 0.172029 -0.264831 81 80 77
0.309948 -0.251254 -0.243038 140 127 115
-0.570904 -0.034599 -0.081199 66 65 61
0.575331 0.023904 0.062719 172 174 183
0.410799 -0.148256 0.316184 177 151 117
-0.130820 -0.255697 -0.714311 185 196 203
0.256348 0.397481 0.742345 173 146 99
0.133880 -0.016786 0.164615 47 39 30
0.292897 0.094587 0.145450 198 188 168
0.152737 -0.132947 0.100787 134 105 108
0.217459 -0.177086 -0.378975 147 129 124
0.457604 0.095092 0.795558 173 146 99
-0.654287 0.040498 0.111801 158 169 169
0.504952 -0.225868 -0.116158 139 124 111
0.521689 -0.037801 0.340012 161 139 104
-0.456929 -0.066692 -0.440359 130 133 129
-0.608505 0.131206 -0.366805 252 252 252
0.215711 0.054021 0.143925 144 141 145
0.494710 0.304007 0.163160 175 177 177
0.076314 -0.076700 -0.410798 40 25 10
0.032565 -0.137506 -0.341102 41 38 37
0.470167 0.281874 0.165531 184 184 181
-0.439745 -0.212651 -0.286808 5 4 6
0.555359 0.271464 0.648061 173 146 99
0.215020 0.072059 -0.452591 156 158 154
0.259264 0.219490 0.442026 212 181 130
0.417542 -0.024834 0.648953 88 64 20
-0.434266 0.187311 -0.512914 25 34 40
-0.595430 0.369142 0.003948 59 60 64
0.254945 0.332220 0.099547 167 171 171
0.315383 -0.086262 0.686295 159 156 142
-0.431265 -0.053295 0.219940 42 5 4
-0.628169 0.023557 -0.138262 154 165 177
0.566035 -0.062879 0.009790 197 196 198
0.100262 0.268648 0.141219 209 210 208
-0.637385 0.157890 -0.047608 73 72 68
0.226079 -0.174055 0.152484 60 53 37
-0.115080 0.145040 0.187102 221 223 224
0.234987 -0.238927 -0.230911 118 107 99
-0.400740 -0.087870 -0.068305 86 92 91
0.321634 -0.124753 0.029301 165 154 124
0.303237 -0.189959 -0.316329 80 81 89
-0.409099 0.042604 -0.468306 89 96 95
0.119675 0.243350 0.146594 216 217 215
-0.345585 -0.122438 -0.223826 151 83 104
0.375439 0.399167 0.741215 173 146 99
0.262617 0.280761 0.410878 150 129 94
-0.405939 0.008391 -0.061415 73 75 82
-0.632008 0.116647 -0.166273 81 84 84
-0.273127 -0.098415 0.225976 69 54 35
-0.336821 -0.182300 -0.401282 128 74 108
0.177472 -0.020473 0.160947 83 82 83
0.209713 0.100901 0.175309 197 201 203
0.383055 -0.213481 -0.287914 139 122 109
0.404529 0.335925 0.140350 155 159 165
-0.609761 0.171667 -0.415260 154 153 146
-0.077655 -0.177473 -0.392015 110 112 118
0.401767 0.376337 0.588400 108 93 64
0.262436 0.279912 0.420675 162 135 85
-0.266103 -0.110997 -0.263682 179 109 130
-0.346903 0.143162 0.173439 208 208 204
0.542022 0.209906 0.018787 158 164 166
0.213295 -0.214491 -0.127349 123 111 102
0.377876 -0.013891 0.690260 88 64 20
-0.239400 -0.096322 -0.315510 228 224 222
-0.013910 -0.240808 -0.187463 108 102 94
-0.254601 -0.178734 -0.392720 82 64 56
0.134108 -0.116433 -0.046194 226 223 228
-0.374291 -0.090255 0.201555 4 2 2
-0.599701 -0.231292 -0.221199 132 135 110
0.502815 0.302255 0.658201 173 146 99
-0.475826 0.324483 0.109461 76 79 81
-0.387470 -0.101270 0.212635 3 1 1
0.529318 0.236588 0.370058 178 146 88
-0.593260 0.287065 -0.260802 90 99 121
-0.403475 -0.042589 -0.062530 65 71 80
0.231494 0.129550 0.806869 158 158 130
-0.237226 0.058823 -0.463747 195 196 190
-0.262856 0.056781 0.205475 194 198 181
0.280258 -0.072335 0.124877 130 134 125
0.295445 0.096080 0.106002 168 156 140
-0.403544 0.134915 -0.494486 44 48 58
0.491999 0.261845 0.677111 173 146 99
0.465106 0.265526 0.712204 173 146 99
-0.259973 -0.224288 -0.741096 185 196 202
-0.634391 0.322298 -0.118378 45 50 53
0.515178 0.106679 0.413977 174 142 81
-0.407059 -0.196760 -0.401214 68 62 53
0.236034 0.229558 0.723400 0 0 0
0.000360 0.029449 -0.445014 100 99 99
0.290054 0.033102 0.038499 208 203 191
0.453141 0.017457 0.845105 173 146 99
-0.488559 -0.063681 -0.024837 2 2 1
0.547688 0.095615 -0.081370 218 218 222
-0.271827 0.233495 0.149065 212 212 212
-0.333526 0.248169 -0.396300 72 66 62
0.150646 -0.190436 -0.027105 52 25 24
-0.433149 -0.199092 -0.147125 8 9 7
0.322552 0.400991 0.733169 173 146 99
0.216808 -0.135762 0.161796 4 3 2
0.245380 -0.007899 0.177935 130 124 102
0.503538 0.377954 0.593342 183 161 111
0.311955 -0.189121 -0.348665 116 117 124
0.240068 0.374721 0.743947 173 146 99
-0.472289 -0.018747 0.144022 155 160 161
0.502463 -0.141300 0.353955 179 154 121
0.303366 -0.126554 0.440576 119 102 76
-0.025947 -0.239598 -0.183371 100 93 85
0.526253 0.040278 0.717691 173 146 99
0.538146 0.217082 0.020533 189 190 188
-0.475506 0.000039 0.189344 172 171 163
0.135747 0.067595 -0.444549 36 24 10
-0.452601 0.218497 -0.492717 14 21 31
0.187817 -0.005747 -0.433529 192 191 186
0.440885 -0.079919 0.735407 159 156 142
-0.133454 0.049910 0.168076 176 182 184
0.524937 -0.231527 -0.343651 55 47 22
0.223777 0.044174 0.788373 149 146 122
0.451709 -0.263593 -0.252233 158 141 127
0.564584 0.081623 -0.027727 205 207 210
0.380627 0.427442 0.725972 0 0 0
0.171995 -0.153763 -0.121085 172 139 142
-0.430152 -0.201762 -0.119019 85 83 73
0.396549 -0.043696 -0.414419 183 188 190
-0.403473 -0.004303 -0.454728 152 156 158
0.288499 0.021735 0.156953 200 188 160
-0.395022 -0.253032 -0.355154 5 6 8
-0.074801 -0.217717 -0.377202 120 118 117
-0.615241 -0.061375 -0.150810 231 241 246
-0.596121 0.098521 -0.313730 134 133 136
0.490080 0.340685 0.666775 173 146 99
0.499196 0.164684 0.031162 159 161 158
-0.040272 -0.171679 -0.336711 137 139 138
0.316686 -0.088676 0.671794 159 156 142
-0.614892 0.181103 -0.346634 140 143 152
0.274296 -0.134110 -0.395219 248 248 248
-0.385565 -0.056005 0.160854 65 22 11
-0.218020 -0.034462 0.218724 81 62 30
-0.059672 -0.188997 -0.387953 93 97 99
-0.618450 0.186353 -0.346938 128 129 140
0.459871 0.005325 0.806349 159 156 142
0.215754 -0.039666 0.252704 2 2 2
0.183077 0.019889 0.225560 29 9 13
-0.206018 -0.050029 0.115225 175 148 139
0.451043 -0.127186 0.448474 160 142 123
0.529004 0.028715 -0.396721 193 183 161
-0.516136 -0.062812 -0.345390 174 168 160
0.320914 -0.069478 0.799994 159 156 142
0.243656 -0.136259 0.088063 15 13 6
