ply
format ascii 1.0
element vertex 1177
property float x
property float y
property float z
property uchar red
property uchar green
property uchar blue
end_header
-0.060776 -0.004645 -0.076326 229 230 229
-0.024808 -0.026806 -0.031657 225 225 225
-0.098300 -0.021345 -0.040285 242 242 242
0.108435 -0.028293 0.001410 209 209 209
0.054377 -0.017075 -0.061536 251 251 251
0.086840 0.019902 -0.004894 255 255 255
0.109220 -0.017931 0.042972 255 255 255
-0.092122 -0.055200 0.062678 246 246 246
0.054918 -0.027613 -0.011092 225 225 225
0.098205 -0.031902 0.069785 255 255 255
0.080676 -0.048409 0.018564 232 232 232
-0.082746 -0.018762 -0.069896 254 254 254
-0.087106 0.020250 -0.044648 255 255 255
-0.063451 -0.027926 -0.045073 226 226 226
0.043533 -0.020096 -0.059880 237 237 237
0.057483 0.019902 -0.012621 255 255 255
0.083256 0.019902 0.001793 255 255 255
-0.072343 -0.045824 0.028036 229 229 229
-0.112581 -0.047172 0.029150 246 246 246
0.034113 0.019948 0.019179 255 255 255
-0.003769 -0.024719 0.018165 252 252 252
0.071227 0.019902 -0.055066 255 255 255
-0.001586 -0.025036 -0.055935 230 230 230
-0.097882 0.020250 -0.042533 255 255 255
-0.039630 0.019824 0.002658 254 255 254
0.064973 -0.026736 -0.031827 222 222 222
0.083748 0.019902 -0.008742 255 255 255
-0.059408 -0.026988 0.028485 253 253 253
-0.049114 -0.027588 -0.010720 224 224 224
-0.055867 -0.026066 0.026296 251 251 251
-0.049472 -0.027573 -0.032356 225 225 225
0.059968 0.019902 -0.013743 255 255 255
-0.089432 -0.000273 -0.058536 255 255 255
-0.065560 0.002739 -0.080352 252 252 252
-0.061063 -0.028682 0.030825 252 252 252
-0.112676 -0.019699 0.038886 255 255 255
0.068200 -0.030432 -0.000603 227 227 227
0.120390 -0.038731 0.050196 249 249 249
-0.025044 -0.026806 -0.010614 225 225 224
-0.093446 0.020250 -0.044116 255 255 255
-0.109715 -0.003100 -0.018436 255 255 255
0.074905 -0.042177 0.014953 233 233 233
-0.076022 -0.022389 0.052758 255 255 255
0.089809 0.019902 -0.051799 255 255 255
0.060453 -0.026945 -0.027655 224 224 224
-0.062680 -0.027144 0.035116 255 254 254
0.070403 -0.043218 0.024970 237 237 237
-0.108809 -0.056382 0.043626 231 231 231
0.041665 0.019902 -0.035258 255 255 255
-0.056141 -0.010626 -0.071014 243 243 243
0.091151 -0.056404 0.060412 242 242 242
-0.074880 0.020250 -0.058495 255 255 255
-0.085304 -0.013801 0.049376 255 255 255
0.038382 -0.021294 -0.059499 234 234 234
0.082746 -0.016375 -0.071179 229 229 229
0.025413 0.015855 -0.017771 255 255 255
-0.101333 -0.043099 0.073868 254 254 254
-0.073130 -0.047933 0.036334 234 234 234
-0.088147 -0.020396 -0.058449 254 254 254
0.008530 0.015231 0.000761 255 255 255
-0.082250 0.020250 -0.038420 255 255 255
0.085861 -0.048534 0.066772 252 252 252
0.074938 -0.036921 0.057726 255 255 255
0.107779 0.015261 -0.017055 249 249 249
-0.083178 0.017530 -0.062226 255 255 255
0.063078 0.019203 -0.017469 255 255 255
0.033910 0.020197 0.004102 254 254 254
-0.073844 0.018499 -0.061742 255 255 255
0.103024 -0.020759 -0.019317 198 198 198
0.104688 0.004007 0.010422 254 254 254
0.066818 -0.040096 0.031457 244 244 244
0.058312 -0.019675 0.028999 255 255 255
0.020601 -0.026806 -0.001340 225 225 225
-0.091352 0.000200 0.030986 255 255 255
0.086639 0.023222 -0.030324 255 255 255
0.118175 -0.032350 0.030485 244 244 244
0.012487 -0.021240 -0.059549 236 236 236
0.033030 0.007475 0.035596 255 255 255
-0.026720 0.019414 0.015270 255 255 255
0.048410 -0.026806 0.015312 229 229 229
0.016055 -0.026806 -0.039405 225 225 225
0.034337 -0.026806 0.007539 227 227 227
0.054485 -0.029601 0.020277 245 245 245
0.112593 -0.012079 0.000085 244 244 244
0.109422 0.004282 -0.012600 246 246 247
-0.108126 -0.042401 0.071497 250 250 250
-0.074524 -0.038174 0.056917 255 255 255
-0.064835 -0.029960 0.000446 224 224 224
0.104957 0.017769 -0.040276 243 243 243
-0.047492 -0.026806 0.010448 230 229 230
-0.081612 0.023037 -0.018278 255 255 255
-0.068137 -0.020015 0.043020 255 255 255
-0.077448 0.021557 -0.007449 255 255 255
0.037105 0.041032 0.006833 255 255 255
-0.012013 -0.026806 -0.007006 226 226 226
-0.008660 0.012308 -0.058165 255 255 255
0.010981 0.016168 -0.047690 255 255 255
-0.074776 -0.033339 -0.062771 240 240 240
-0.058557 0.020250 -0.045794 255 255 255
0.073355 -0.025509 0.051985 255 255 255
0.027827 0.016168 -0.048226 255 255 255
0.032310 0.014559 -0.055285 255 255 255
0.075030 -0.036423 -0.074394 234 235 234
0.000954 0.014700 0.012444 255 255 255
0.099742 -0.011183 0.042928 255 255 255
-0.071942 -0.039682 0.051074 254 254 254
0.021414 -0.000642 0.031474 255 255 255
0.059944 -0.027874 -0.072005 252 252 252
-0.082525 -0.043627 0.067200 254 254 254
-0.028631 -0.026806 0.028855 225 225 225
-0.105842 -0.007039 -0.035454 254 254 254
0.070021 0.015495 0.013064 255 255 255
0.078100 -0.052730 0.048859 243 243 243
-0.024555 -0.026806 -0.049649 224 224 224
0.114153 -0.016304 0.011826 244 244 244
-0.088658 0.004259 0.025939 255 255 255
-0.042119 0.040548 0.014863 255 255 255
-0.090703 0.002249 0.028076 255 255 255
-0.112521 -0.015232 -0.003080 248 248 248
-0.055899 0.016699 0.025272 255 255 255
-0.075378 -0.031864 -0.056236 229 229 229
0.082475 -0.029793 -0.059939 190 190 190
0.049419 -0.027500 -0.018154 223 223 223
0.029543 0.002376 -0.062848 249 249 249
-0.113779 -0.034785 0.062532 255 255 255
0.071997 -0.046584 0.039188 245 245 245
-0.085115 0.020250 -0.046801 255 255 255
-0.014774 0.006397 0.023579 255 255 255
-0.081959 -0.027862 -0.012333 231 231 231
-0.082066 -0.054574 0.055096 242 242 242
0.040528 0.016170 -0.051019 255 255 255
-0.094117 0.008452 0.016218 255 255 255
0.111445 -0.051840 0.062366 229 229 229
0.101197 -0.020719 -0.028030 200 200 200
-0.059931 -0.027166 -0.063119 225 225 224
-0.036497 0.035658 0.027517 255 255 255
0.081942 0.019394 -0.059742 254 254 254
0.114444 -0.017045 0.021278 249 249 249
-0.111557 -0.005477 0.001570 255 255 255
-0.036230 -0.026806 0.029882 225 225 225
-0.108195 0.014498 -0.021829 255 255 255
-0.052115 0.019851 -0.032488 255 255 255
0.101135 0.002091 -0.046260 244 244 244
-0.014617 0.016170 -0.028429 255 255 255
-0.119734 -0.036514 0.040588 253 253 253
-0.078834 -0.025070 0.057086 255 255 255
-0.092507 0.019780 0.004479 255 255 255
0.055375 -0.028981 0.003741 226 226 226
-0.061970 -0.032054 -0.057785 230 230 230
-0.051817 -0.010486 0.031177 255 255 255
-0.019705 -0.026806 -0.025567 224 224 224
0.003241 -0.011683 0.020861 255 255 255
-0.113460 -0.016227 0.027956 255 255 255
-0.108601 0.008833 -0.012191 255 255 255
-0.102138 -0.057600 0.039826 226 226 226
0.002378 -0.024263 -0.056674 232 232 232
0.100058 0.019902 -0.037393 255 255 255
0.056291 -0.021531 -0.064402 250 250 250
-0.112014 -0.018754 0.038728 254 254 254
0.053154 0.023490 -0.027754 255 255 255
-0.082898 -0.055323 0.038544 226 226 226
-0.104030 0.001922 -0.041648 255 255 255
-0.085936 -0.026785 -0.015595 226 226 226
0.072745 -0.002836 -0.081032 241 241 241
-0.107901 -0.054041 0.034969 235 235 235
0.093221 -0.059309 0.050741 222 222 222
0.059586 -0.028382 -0.047297 228 228 228
-0.090623 -0.018306 0.054952 255 255 255
0.005657 -0.026806 -0.015715 225 225 225
0.068302 -0.017712 0.042112 255 255 255
0.050226 -0.002027 -0.063238 249 249 249
0.001411 0.016160 -0.050905 255 255 255
-0.050970 0.020250 -0.046432 255 255 255
-0.034812 0.015708 0.035302 255 255 255
-0.016733 -0.010356 0.026965 255 255 255
-0.106843 -0.006328 0.026059 255 255 255
-0.101969 -0.021954 -0.019686 244 244 244
0.075741 -0.018422 -0.080640 239 239 239
-0.007314 -0.026806 -0.021470 224 224 224
-0.053380 0.010525 0.028782 255 255 255
-0.022753 -0.026806 -0.007404 225 225 225
0.082024 -0.017513 0.052202 255 255 255
0.056385 0.019902 -0.000279 255 255 255
-0.105015 0.020250 -0.026377 255 255 255
-0.060857 0.017731 -0.061385 255 255 255
-0.031178 -0.016535 0.035792 255 255 255
-0.007449 -0.013816 -0.061385 246 246 246
-0.103756 -0.010992 -0.038289 254 254 254
0.099085 -0.022688 -0.026007 215 215 215
-0.103513 -0.015525 -0.033961 250 250 250
0.059255 0.019344 -0.021429 255 255 255
-0.069322 -0.000556 0.030442 255 255 255
-0.078548 0.000563 0.032241 255 255 255
0.061168 0.019203 -0.030158 255 255 255
-0.019965 0.018587 0.015271 253 253 253
0.092197 -0.057673 0.037980 226 226 226
0.081994 0.008496 -0.077782 248 248 248
0.059016 -0.032142 -0.060929 240 240 240
0.035435 0.033189 0.027923 255 255 255
-0.107254 0.004479 -0.034001 255 255 255
-0.094419 -0.000221 0.030001 255 255 255
-0.048322 -0.018897 0.033135 255 255 255
0.049683 0.033629 0.021171 254 254 254
0.042572 0.035341 -0.004329 253 253 253
-0.054331 -0.011475 -0.064655 244 244 244
0.005839 0.014077 0.016454 255 255 255
0.043851 0.005076 -0.062333 252 252 252
0.086031 -0.040323 0.005766 228 228 228
-0.086165 -0.037457 0.003005 233 233 233
0.008318 0.016195 -0.033706 255 255 255
-0.109617 0.001248 -0.000721 255 255 255
-0.080539 0.000572 0.032372 255 255 255
-0.072690 0.016843 -0.068691 255 255 255
0.052869 -0.027971 0.019020 243 244 244
0.053071 -0.022721 0.029968 254 254 254
-0.080859 -0.033065 -0.076036 251 252 251
-0.112267 -0.012386 -0.004574 254 254 254
0.071835 -0.040487 0.049628 251 250 250
0.093491 0.023163 -0.029140 255 255 255
-0.109279 -0.015742 0.039086 255 255 255
0.056599 -0.027347 -0.017513 224 224 224
0.067252 -0.004715 -0.075948 225 226 225
-0.088970 -0.033875 0.069748 255 255 255
0.063026 -0.003382 0.028567 255 255 255
-0.059368 -0.027645 -0.042337 225 225 225
0.072517 -0.027844 0.051956 255 255 255
-0.039418 -0.028066 -0.031811 224 224 224
-0.068860 -0.010322 0.038165 255 255 255
-0.067639 -0.014750 0.039851 255 255 255
0.050597 -0.022905 -0.057986 240 240 240
0.073151 -0.030940 -0.001694 227 227 227
-0.115723 -0.039876 0.064588 253 253 253
0.008214 -0.000609 0.021272 255 255 255
-0.080333 0.024711 -0.030554 255 255 255
0.026208 -0.026806 0.005682 227 227 227
0.112473 -0.013171 -0.002846 243 243 243
0.118357 -0.033386 0.047735 250 250 250
-0.089581 0.009434 0.017640 255 255 255
-0.113636 -0.042761 0.024849 248 248 248
-0.105448 -0.018218 -0.017103 252 252 252
0.088569 -0.003546 -0.064889 242 242 242
-0.091480 -0.024789 -0.053436 252 252 252
0.061439 -0.035156 -0.074093 240 240 240
0.057927 0.019902 -0.057188 255 255 255
0.086681 -0.056918 0.041165 229 230 229
-0.073022 0.019851 -0.051688 255 255 255
0.005626 -0.015718 -0.060967 247 247 247
-0.099538 0.007246 0.012794 255 255 255
-0.037102 0.038245 -0.002528 255 255 255
-0.030377 -0.026806 0.017212 225 225 225
0.055160 0.022069 -0.017662 255 255 255
0.067437 0.023186 -0.002346 255 255 255
0.117809 -0.041159 0.033284 215 215 215
-0.115794 -0.040743 0.065294 250 250 251
-0.098780 -0.052459 0.023517 234 234 234
0.002006 0.014811 0.010480 255 255 255
-0.089817 -0.052803 0.022934 226 226 226
0.076680 0.019902 -0.058199 255 255 255
-0.071866 -0.038928 0.013158 223 223 223
-0.078902 -0.034706 0.063041 255 255 255
-0.046444 0.020250 -0.038023 255 255 255
0.095488 0.023020 -0.027692 255 255 255
0.108505 0.000716 -0.028256 241 241 241
-0.057558 0.019902 0.012038 255 255 255
0.083750 0.005479 -0.077136 239 239 239
-0.044626 0.020250 -0.038497 255 255 255
-0.004638 0.016122 -0.010915 255 255 255
0.074809 -0.025967 -0.031158 221 221 221
-0.038852 0.015973 -0.053021 255 255 255
0.045295 -0.027893 -0.038051 225 225 225
-0.080081 0.016860 0.011209 255 255 255
0.062166 0.009817 -0.078099 254 254 253
-0.078757 0.020160 0.010167 255 255 255
-0.000518 -0.002373 0.021559 255 255 255
0.107568 -0.025521 0.057415 255 255 255
0.013552 -0.026806 -0.029240 226 226 226
0.062266 0.019203 -0.042271 254 254 254
-0.056570 -0.027164 -0.030343 224 224 224
-0.015196 -0.026806 -0.007883 227 227 227
-0.034545 -0.026806 0.032872 226 226 226
-0.062384 0.020250 -0.057991 255 255 255
-0.041386 -0.005665 -0.062826 249 249 249
0.087561 -0.057172 0.040824 229 229 229
-0.107790 -0.020684 0.049563 255 255 255
-0.113697 -0.014399 0.009490 254 254 254
0.082479 -0.040828 0.007738 230 230 229
0.065094 0.015085 0.012649 255 255 255
0.105118 -0.048696 0.021554 209 210 209
0.082380 0.012790 0.015249 255 255 255
0.058683 -0.028931 -0.000023 226 227 226
0.111366 -0.033496 0.064367 255 255 255
-0.077908 -0.032896 0.000133 228 228 228
-0.100704 0.000075 0.023702 255 255 255
-0.036318 0.016166 -0.051487 255 255 255
-0.107344 0.019085 -0.032493 254 254 254
-0.020888 0.016178 -0.042176 255 255 255
0.063288 -0.030527 0.035181 253 253 253
0.080815 -0.012157 -0.075019 249 249 249
0.087861 -0.056597 0.036198 229 229 229
0.071211 -0.037567 0.050142 255 255 255
0.094921 -0.056110 0.052561 202 202 202
0.109286 -0.007407 -0.019691 225 225 225
-0.079301 0.010873 -0.076558 255 255 255
-0.058302 -0.027562 -0.011675 223 223 223
-0.117215 -0.028255 0.025804 253 253 253
-0.012975 0.015170 0.002492 255 255 255
-0.080789 -0.026248 -0.019710 225 225 225
0.005016 -0.026806 0.011285 225 225 225
0.091189 -0.023472 -0.037340 218 218 218
-0.110021 -0.020760 -0.004265 252 252 252
-0.064655 -0.028355 -0.006462 224 224 224
-0.047773 0.017793 0.018683 255 255 255
0.106748 -0.005049 -0.033808 234 234 234
0.046719 0.035193 -0.001809 253 253 253
-0.098838 -0.036310 0.002476 243 243 243
0.099800 0.018215 -0.001354 253 253 253
0.071803 0.023598 -0.044276 255 255 255
-0.059158 0.018205 -0.059790 254 254 254
-0.069789 -0.028874 0.047860 255 255 255
0.024353 0.036061 -0.000248 255 255 255
-0.007611 0.015189 -0.003395 255 255 255
0.043302 -0.000664 0.035227 255 255 255
-0.036979 -0.027658 -0.012027 231 231 231
0.087177 -0.042164 0.007418 232 232 232
-0.088108 -0.029104 0.065783 255 255 255
-0.077081 0.006839 0.024010 255 255 255
0.070850 -0.037091 0.049476 255 255 255
-0.108967 -0.040542 0.015064 247 247 247
0.109675 -0.006415 -0.019339 226 226 226
0.086126 0.005117 0.025396 255 255 255
-0.117412 -0.036655 0.058494 254 254 253
0.102017 -0.054362 0.064512 240 240 240
-0.026994 0.039502 0.005870 255 255 255
0.118907 -0.035803 0.034539 242 242 242
-0.025912 -0.026806 -0.046964 225 225 225
-0.027634 0.019902 0.032581 255 255 255
0.033963 -0.026806 0.011310 228 228 228
-0.093215 -0.050442 0.068897 249 249 249
-0.107551 -0.000712 -0.032283 255 255 255
0.000195 0.015052 0.001422 255 255 255
0.108900 -0.000559 0.008144 253 253 253
0.010379 0.016159 -0.052035 255 255 255
-0.076519 -0.031753 -0.078100 248 248 248
0.096336 0.019273 -0.019974 253 253 253
-0.120012 -0.037011 0.042608 253 253 253
0.106343 0.019001 -0.013486 250 250 250
0.069370 -0.029034 -0.048678 228 228 228
-0.117779 -0.029331 0.031985 253 253 253
0.061773 -0.028529 -0.047835 229 229 229
-0.053096 0.022447 -0.025427 254 254 254
0.068207 -0.034589 0.044481 255 255 255
-0.033884 -0.026806 -0.049248 223 223 223
0.085450 0.013103 -0.071411 247 247 247
-0.022712 0.016158 -0.052354 255 255 255
0.100344 -0.052067 0.023515 216 216 216
-0.012948 -0.026806 -0.006794 226 226 225
-0.041465 0.017861 0.034694 255 255 255
-0.078764 0.019851 -0.012761 255 255 255
-0.113885 -0.014695 0.012041 254 254 254
-0.055809 -0.020006 -0.064628 236 236 236
-0.079316 0.011012 -0.074258 255 255 255
0.078638 -0.025921 -0.023419 222 222 222
-0.059820 -0.032096 0.018929 226 226 226
0.102058 -0.012990 0.043837 255 255 255
-0.004557 -0.026806 -0.002976 225 225 225
-0.068613 -0.026655 -0.035721 223 223 223
0.083526 0.009858 -0.075969 251 251 251
0.003619 -0.011217 0.020918 255 255 255
0.024017 -0.026806 -0.041894 225 225 225
-0.085174 0.020250 0.001389 255 255 255
0.090582 0.019902 -0.046688 255 255 255
-0.111156 -0.007718 -0.010858 254 254 254
-0.042427 0.020250 -0.027809 255 255 255
0.036939 -0.026804 -0.050519 224 224 223
-0.046224 0.019851 -0.018522 255 255 255
-0.035843 0.006182 0.035944 255 255 255
-0.027760 0.019937 0.010586 255 255 255
-0.011241 -0.005330 0.021806 255 255 255
0.119206 -0.036234 0.036616 243 243 243
0.032053 -0.026806 -0.047795 225 225 225
0.110973 -0.033443 0.009980 212 212 212
0.093579 0.019902 -0.013434 255 255 255
0.021653 0.016185 -0.038885 255 255 255
-0.045804 0.018092 0.001792 255 255 255
-0.037223 -0.026806 -0.000675 226 226 226
-0.024849 -0.000242 0.033499 255 255 255
-0.055934 0.012406 -0.070505 250 250 250
0.025357 -0.017551 0.033493 255 255 255
-0.063655 0.013661 0.013795 255 255 255
-0.100341 -0.021839 0.057475 255 255 255
-0.066237 0.010692 -0.078742 255 255 255
-0.093147 -0.059085 0.053803 224 224 224
-0.027827 0.039927 0.015261 255 255 255
0.099133 -0.056460 0.046470 204 204 204
0.046989 -0.020564 -0.059760 237 237 237
-0.088978 -0.024836 0.061886 255 255 255
-0.103762 0.015793 -0.042433 255 255 255
-0.057071 0.018092 -0.059078 253 253 253
-0.101066 -0.036748 0.004431 245 245 245
0.020965 -0.010338 0.031216 255 255 255
-0.065040 -0.028346 -0.006777 223 223 223
-0.098097 -0.033089 -0.001623 241 242 241
0.083995 -0.051512 0.062397 252 252 252
-0.017586 -0.016369 0.027541 254 254 254
0.039139 0.039770 0.020427 255 255 255
0.059909 -0.026544 0.029490 254 254 254
-0.105958 -0.033483 0.068849 255 255 255
-0.053046 -0.027777 -0.040466 225 225 225
-0.025021 -0.026806 0.007779 226 226 226
-0.072518 0.020250 -0.056945 255 255 255
-0.005047 0.015221 0.001089 255 255 255
-0.054892 -0.027713 -0.008248 223 223 223
-0.103206 -0.009199 -0.040551 254 254 254
-0.107550 -0.036961 0.009374 247 247 247
0.082668 -0.024808 -0.068741 235 235 235
0.027625 -0.026806 -0.001254 225 225 225
-0.109694 -0.041506 0.071046 254 254 254
-0.072427 -0.004772 -0.075120 236 237 236
0.107016 -0.033843 0.068504 255 255 255
-0.028344 0.035753 0.025418 255 255 255
-0.025985 -0.000264 0.034107 255 255 255
-0.038077 0.024535 0.017138 255 255 255
-0.068482 0.023875 -0.019697 255 255 255
-0.020196 0.007041 -0.061793 253 253 253
0.026679 0.016158 -0.052343 255 255 255
0.039935 -0.001943 -0.063248 251 251 251
-0.081616 -0.011005 -0.074321 253 253 253
-0.026912 -0.026762 0.032204 244 244 244
-0.117389 -0.032215 0.024212 252 252 252
0.086622 0.000160 0.032629 255 255 255
0.090556 -0.043231 0.008464 224 224 224
0.080378 -0.050588 0.024645 232 232 232
-0.073590 -0.048565 0.038697 236 236 236
0.060630 -0.032436 0.019770 234 234 234
0.106464 -0.004985 0.024154 254 254 254
0.077979 0.017141 -0.066152 255 255 255
0.096361 -0.056988 0.061215 241 241 241
-0.070268 0.022996 -0.042993 254 254 254
0.111793 -0.025937 0.003881 217 217 217
0.066420 -0.029640 0.041897 255 255 255
-0.028973 0.005041 -0.062332 253 253 253
-0.111122 -0.053148 0.037369 237 237 237
0.110877 -0.049239 0.029569 203 203 203
-0.000032 -0.022520 -0.058330 232 232 232
0.060634 -0.034438 -0.074472 249 249 249
-0.002612 -0.008538 0.021280 255 255 255
0.078244 -0.026785 -0.044692 222 222 222
0.009110 -0.017801 0.020051 255 255 255
0.108895 0.003269 -0.020335 244 244 244
0.013464 0.016120 -0.026609 255 255 255
0.104168 -0.040294 0.073063 255 255 255
0.085526 0.012862 0.014187 255 255 255
-0.096056 -0.045319 0.011476 239 239 239
-0.093309 -0.016192 0.052241 255 255 255
0.078085 -0.014560 0.047728 255 255 255
-0.050658 -0.026806 0.018511 230 230 230
-0.099321 -0.058562 0.041867 223 223 223
-0.064903 -0.034938 0.013876 222 222 222
0.013939 -0.026806 -0.040817 225 225 225
-0.114808 -0.025489 0.011439 251 251 251
-0.002296 0.016170 -0.045499 255 255 255
-0.077887 0.022450 -0.040141 255 255 255
-0.106161 0.002252 -0.036958 255 255 255
-0.031270 -0.021320 0.035427 255 255 255
-0.079343 0.024586 -0.021831 255 255 255
-0.109435 -0.004592 0.015307 254 254 254
0.039691 -0.021466 -0.059337 236 236 236
-0.103918 -0.058760 0.054369 221 221 221
-0.032773 0.010766 -0.060107 254 254 254
0.100991 -0.055816 0.032525 218 218 218
0.056450 -0.029337 0.004280 226 226 226
0.094794 -0.055375 0.063241 244 244 244
-0.060510 -0.004611 -0.076663 228 229 228
-0.039634 0.012564 0.035299 255 255 255
0.040269 0.019902 -0.017507 255 255 255
0.091831 0.019902 -0.012694 255 255 255
0.066061 -0.004537 -0.079201 229 229 229
-0.082530 -0.025282 -0.076504 254 254 254
-0.073542 -0.004502 -0.080071 234 233 233
0.026947 0.016178 -0.042424 255 255 255
-0.114375 -0.029672 0.054346 254 254 254
-0.104446 -0.024069 -0.008780 246 246 246
0.012343 0.015604 -0.010199 255 255 255
0.088760 -0.020211 -0.056778 237 237 237
-0.102366 -0.028778 -0.004078 245 245 245
0.116922 -0.028726 0.043145 253 253 253
-0.026732 -0.026806 -0.030169 225 225 225
0.104603 -0.001934 -0.039843 249 249 249
-0.100721 -0.039571 0.073501 255 255 255
-0.047443 -0.027745 -0.036437 225 225 225
-0.054771 -0.007499 -0.068725 246 246 246
-0.069966 0.010168 -0.079291 254 254 254
-0.099333 0.013349 0.004040 255 255 255
-0.020091 -0.026806 -0.030168 225 225 225
0.067609 0.019902 -0.053863 255 255 255
-0.067817 -0.025968 -0.079701 245 245 245
-0.087027 -0.007591 0.042466 255 255 255
-0.108226 0.004431 -0.029976 255 255 255
0.032455 0.036998 0.026305 255 255 255
0.063907 0.005944 0.021697 255 255 255
0.104730 -0.006976 -0.038279 235 235 235
0.111700 -0.007605 0.011731 250 250 250
-0.048095 -0.016041 -0.060896 239 239 239
0.086951 -0.027528 -0.052899 219 219 219
0.084951 0.019902 0.005499 255 255 255
-0.031715 0.005736 0.035562 255 255 255
-0.107219 -0.004393 -0.032387 254 254 254
0.062127 -0.001229 0.026903 255 255 255
-0.049194 -0.028297 -0.044934 229 229 229
-0.102327 -0.018315 0.051287 255 255 255
0.028455 -0.014674 0.035038 255 255 255
-0.023786 -0.026806 -0.037174 225 225 225
0.038177 -0.028359 -0.041546 228 228 228
0.110639 -0.023248 0.049779 255 255 255
0.029843 -0.001944 -0.063249 252 252 252
-0.059915 -0.021415 -0.074703 246 246 246
-0.115229 -0.039675 0.024948 250 250 250
0.044590 0.019902 -0.013161 255 255 255
0.091669 -0.016456 -0.054592 239 239 239
-0.051861 -0.027814 -0.040234 225 225 225
-0.020514 0.017691 0.029401 255 255 255
-0.097387 0.019851 -0.016515 255 255 255
0.100043 0.016373 -0.000673 255 255 255
-0.107958 0.016345 -0.020326 255 255 255
0.052488 -0.028741 0.018010 246 246 246
-0.104796 0.019436 -0.010263 255 255 255
-0.017290 -0.000714 0.027685 255 255 255
0.061688 0.019902 0.009253 255 255 255
-0.049181 -0.014716 -0.061187 239 239 239
0.024116 -0.026806 -0.023806 225 225 225
0.079647 -0.006495 0.040405 255 255 255
-0.055046 -0.008977 -0.069180 246 246 246
0.088942 0.019902 -0.045264 255 255 255
0.026517 -0.008032 -0.062484 245 245 245
0.043809 -0.020505 0.035086 255 255 255
-0.088839 -0.042095 0.071503 254 254 254
0.023702 0.006970 0.032440 255 255 255
0.078778 0.000433 -0.080195 246 246 246
-0.007835 -0.013964 -0.061353 246 246 245
0.003702 -0.026806 -0.017238 224 224 224
0.051761 -0.027609 -0.035913 224 224 224
0.053601 0.013493 -0.060694 255 255 255
-0.109503 0.003978 -0.011773 255 255 255
0.012892 0.015609 -0.010336 255 255 255
-0.094601 0.020250 -0.007050 255 255 255
-0.109586 -0.006390 -0.019994 253 253 253
-0.099768 -0.018324 -0.041961 251 251 251
0.045666 0.019902 0.030335 255 255 255
-0.014226 0.008758 0.022273 255 255 255
0.109766 -0.007239 -0.018430 224 224 224
-0.040311 -0.027926 -0.025886 225 226 225
0.060945 0.000118 -0.079312 250 250 250
-0.006748 0.016203 -0.029638 255 255 255
0.031582 0.000834 -0.063042 244 244 244
0.045457 0.019902 -0.009562 255 255 255
0.072771 -0.032227 0.001440 228 228 228
0.070470 -0.031564 -0.066335 224 224 224
-0.085793 -0.029249 -0.057347 245 245 245
0.034118 0.005212 -0.062291 252 252 252
-0.028697 0.019912 0.006903 255 255 255
0.087245 -0.011592 0.047098 255 255 255
0.039944 -0.023472 -0.057454 232 232 232
0.103724 -0.012829 -0.037056 227 227 227
-0.014581 0.019060 0.021233 255 255 255
0.093896 0.012904 -0.053944 242 242 242
0.108738 0.006824 -0.018266 243 243 243
0.013267 -0.016301 0.020371 254 254 254
-0.083968 0.000726 0.032114 255 255 255
-0.054669 -0.007215 -0.068521 246 246 246
-0.082125 -0.027665 -0.012915 227 227 227
-0.065470 0.004994 -0.079968 252 252 252
-0.019745 -0.026806 -0.034812 225 225 225
-0.085671 0.020250 -0.047124 255 255 255
-0.107313 0.017973 -0.033356 255 255 255
-0.070975 -0.026467 -0.035371 223 223 223
-0.029359 -0.026806 -0.001189 226 226 226
0.014014 -0.026806 0.014919 224 224 224
-0.107078 -0.006106 0.025201 255 255 255
0.024297 -0.026806 0.014271 226 226 226
-0.025782 -0.023311 0.033308 253 253 253
0.088181 -0.010233 -0.065921 240 240 240
-0.025324 0.019304 -0.010085 255 255 255
0.103553 0.006498 -0.042751 243 243 243
0.096315 -0.045220 0.073300 254 254 254
-0.017505 0.019902 0.012691 255 255 255
-0.049054 0.019902 -0.006049 255 255 255
-0.051555 0.019014 0.029395 255 255 255
0.090194 -0.006565 -0.056439 242 242 242
0.104544 0.004265 -0.040711 243 243 243
0.078847 -0.051531 0.055178 248 248 248
-0.014912 0.016165 -0.050195 255 255 255
0.076101 0.010910 -0.078225 255 255 255
-0.082959 -0.051490 0.023742 224 224 224
-0.094115 -0.009174 0.043149 255 255 255
-0.089153 0.003721 0.026546 255 255 255
0.110816 -0.042087 0.070471 250 251 251
0.108509 0.010116 -0.014129 249 249 249
0.058995 -0.003741 -0.077899 251 251 250
-0.084369 0.015679 -0.071644 255 255 255
0.021966 0.003786 -0.062655 252 252 252
0.103441 -0.042583 0.073082 255 255 255
0.057583 0.007086 -0.072687 243 243 242
0.058532 0.019018 0.019927 252 252 252
0.026947 -0.026806 -0.039120 225 225 225
0.052493 0.023560 -0.023503 255 255 255
-0.025092 -0.001798 0.033705 255 255 255
-0.081492 -0.019350 -0.078612 253 253 253
-0.070840 0.002822 -0.080863 253 253 253
0.080123 -0.016657 0.050598 255 255 255
0.088887 -0.024940 -0.023485 219 219 219
-0.069757 0.025082 -0.011905 255 255 255
-0.118605 -0.045287 0.040809 248 248 248
0.090207 -0.058897 0.048325 231 231 231
-0.046120 0.039658 0.013410 255 255 255
-0.001978 -0.026806 -0.052527 224 224 224
-0.097668 0.015104 -0.050728 255 255 255
-0.084773 0.002991 0.028884 255 255 255
0.019269 -0.026806 -0.002854 225 225 225
-0.109599 -0.040729 0.016035 249 249 249
-0.077884 -0.041096 0.062344 255 255 255
-0.078833 -0.001645 -0.080231 253 253 253
-0.081901 -0.031722 -0.057225 226 226 226
0.017367 -0.026806 -0.021472 224 224 224
0.006142 0.004531 -0.062455 252 252 252
-0.113125 -0.054436 0.047153 231 231 231
-0.041784 0.009248 0.035123 255 255 255
0.088137 -0.036165 0.070508 255 255 255
-0.099326 -0.051786 0.022525 234 234 234
0.112700 -0.017849 -0.000152 242 242 241
0.034285 0.026317 0.017105 255 255 255
0.098005 -0.056723 0.061741 239 239 239
-0.024005 -0.002825 0.033152 255 255 255
-0.000698 0.008007 0.019760 255 255 255
-0.086673 -0.006318 0.040944 255 255 255
0.020670 0.015650 -0.011592 255 255 255
0.011022 -0.026806 -0.009458 226 226 226
-0.102698 0.016470 -0.004534 255 255 255
0.048623 0.019902 -0.048140 255 255 255
-0.028586 0.018485 0.033820 255 255 255
-0.065600 0.017402 -0.064625 255 255 255
0.115100 -0.044926 0.066066 241 241 241
0.027846 -0.005762 0.034971 255 255 255
0.092403 -0.031888 -0.004133 220 220 220
0.062237 0.019203 -0.021863 255 255 255
0.093241 -0.024120 -0.024717 219 219 219
-0.063079 -0.027347 -0.014608 225 225 225
0.112855 -0.023622 0.004242 222 222 222
0.033596 -0.009751 -0.062217 245 245 245
-0.103844 0.002570 0.014608 255 255 255
0.064402 0.023038 -0.044510 255 255 255
-0.054549 -0.024418 0.027530 252 252 252
-0.110280 0.000374 -0.005572 255 255 255
-0.043478 0.005836 -0.062127 253 253 253
0.107494 -0.022145 -0.007024 207 207 207
-0.096992 -0.057390 0.060722 239 239 239
-0.087310 0.005958 0.023829 255 255 255
0.038263 0.033234 0.027796 255 255 255
-0.069276 0.023569 -0.020589 254 254 254
0.034951 -0.027651 -0.021640 233 233 233
0.065171 0.006849 -0.079537 251 251 251
0.101322 0.019902 -0.027024 255 255 255
0.089069 -0.058442 0.052226 230 231 230
-0.104133 0.006043 0.007862 255 255 255
-0.108232 0.002324 0.004198 255 255 255
0.044553 0.016162 -0.052109 255 255 255
-0.078014 -0.001149 0.034164 255 255 255
-0.050566 -0.027853 -0.056745 235 234 235
-0.041743 -0.004654 -0.062940 251 251 251
0.043115 0.012122 -0.058383 254 254 254
-0.000464 -0.002655 0.021609 255 255 255
-0.117381 -0.029750 0.026049 253 253 253
0.104644 -0.019761 -0.015949 203 203 203
0.105051 0.000861 0.015671 254 254 254
0.078208 -0.043981 0.014160 232 232 232
0.041416 0.017219 -0.046675 255 255 255
0.058033 -0.022120 -0.065833 246 246 246
-0.105170 -0.004060 0.024717 255 255 255
0.068097 -0.022267 0.043764 255 255 255
-0.112734 -0.010314 0.007179 254 254 254
0.072712 -0.027537 0.052079 255 255 255
0.081621 -0.052074 0.058944 249 249 249
-0.046113 -0.028420 0.002581 226 226 226
0.001059 -0.026228 -0.047654 223 222 222
0.089319 -0.044096 0.009658 225 225 225
0.108051 0.019116 -0.027159 253 253 253
0.031159 -0.015205 -0.061080 246 246 246
-0.088766 -0.024079 -0.030963 225 225 225
-0.064551 0.003334 0.024338 255 255 255
-0.067331 -0.038483 0.019100 224 224 224
0.109098 -0.007409 -0.021062 226 226 226
0.087393 0.023192 -0.018948 255 255 255
0.095964 -0.012203 -0.050891 238 238 238
-0.105314 0.013719 -0.006262 255 255 255
-0.101161 -0.032021 -0.000859 244 244 244
-0.114698 -0.053103 0.052530 223 223 222
-0.078080 -0.012126 -0.076553 254 254 254
-0.007956 0.015084 0.005030 255 255 255
0.019649 -0.026806 -0.024593 224 224 224
0.107831 -0.048065 0.069365 245 245 245
-0.075693 0.013300 -0.074889 252 253 253
0.115890 -0.022756 0.032416 249 249 249
0.116837 -0.034049 0.022994 220 220 220
0.026969 -0.026806 0.025791 226 226 226
-0.037059 0.034301 -0.005713 255 255 255
0.040199 0.040357 0.004203 255 255 255
-0.054453 -0.006404 -0.067238 247 247 247
0.105102 -0.028389 -0.001892 206 206 206
-0.063428 -0.031738 -0.077263 240 240 240
0.029299 0.013624 -0.056510 254 254 254
0.108783 0.004684 -0.020569 243 243 243
-0.084531 0.009479 0.019503 255 255 255
0.099259 -0.014115 0.047416 255 255 255
-0.063968 -0.032658 0.035386 251 251 251
0.109328 0.005092 -0.011012 247 247 247
0.047482 0.002872 0.033382 255 255 255
-0.071941 -0.040272 0.050859 254 254 254
-0.092626 -0.034039 0.070958 255 255 255
0.101830 -0.059302 0.052502 224 224 224
0.022869 -0.026806 0.012855 226 226 225
-0.079598 -0.038818 0.007101 227 227 227
-0.105267 -0.003344 0.023146 255 255 255
0.087333 -0.008330 -0.069689 239 239 239
0.028427 -0.012867 0.035154 255 255 255
0.112487 -0.047635 0.029713 202 202 202
0.065111 -0.038011 0.030366 242 242 242
-0.026262 -0.005503 0.034431 255 255 255
-0.062242 0.010386 -0.077918 255 255 255
-0.049302 -0.028687 0.012260 236 236 236
0.079093 0.005159 -0.079456 249 249 248
-0.013219 -0.026806 -0.029389 225 225 225
-0.093682 -0.038950 0.072961 255 255 255
0.113011 -0.012355 0.017384 250 250 250
-0.076260 -0.007871 0.040672 255 255 255
-0.097927 -0.031962 0.069861 255 255 255
-0.047865 0.039091 0.012388 255 255 255
-0.035700 0.024368 0.017388 255 255 255
0.075176 0.019203 -0.024804 255 255 255
0.108974 -0.006403 -0.022656 228 228 228
-0.027106 -0.026806 0.024735 225 226 225
0.007666 0.015610 -0.009022 254 254 254
0.102739 0.008580 -0.044034 244 244 244
0.057462 -0.015733 0.028806 255 255 255
0.098045 0.019203 -0.028496 254 254 254
0.066760 -0.009444 0.035800 255 255 255
0.066850 -0.027013 0.042879 255 255 255
0.068000 -0.023915 -0.080067 243 243 243
0.006529 -0.026806 -0.034659 225 225 225
0.077881 -0.011003 0.044326 255 255 255
-0.096222 -0.057132 0.035073 226 226 226
0.030464 0.018066 -0.000971 255 255 255
-0.107710 -0.008196 0.028039 255 255 255
0.015899 -0.023247 0.024951 252 252 252
0.086119 -0.044893 0.011034 228 228 228
-0.115764 -0.036092 0.060776 255 255 255
-0.109895 -0.002548 0.008224 255 255 255
-0.109606 0.002807 -0.005250 255 255 255
0.102063 -0.042908 0.011241 210 210 210
-0.092282 -0.047316 0.070968 253 253 253
-0.014751 -0.026806 -0.033025 226 226 226
0.091878 -0.023403 -0.033700 217 217 217
0.071937 -0.041429 0.017869 233 233 233
0.103535 0.019902 -0.018432 255 255 255
0.097448 0.004793 -0.050519 243 243 243
-0.115417 -0.021500 0.017272 253 253 253
0.086502 -0.026474 -0.058102 218 218 218
-0.085851 -0.001593 0.035034 255 255 255
0.034131 0.022887 0.017058 255 255 255
0.092687 0.019902 -0.012691 255 255 255
-0.050268 -0.002917 -0.063137 249 249 249
-0.103053 0.020250 -0.022848 255 255 255
0.036654 -0.010023 0.036557 255 255 255
0.032807 0.033163 0.027645 255 255 255
-0.063896 -0.033354 -0.076936 242 242 242
-0.091481 -0.046149 0.071591 254 254 254
-0.009821 -0.005497 -0.062842 248 248 248
-0.113565 -0.039562 0.067129 254 254 254
0.107185 0.001925 0.008487 254 254 254
-0.031163 -0.026806 0.003647 224 224 224
0.096038 -0.017582 -0.049810 233 233 233
0.106432 -0.004580 -0.034816 234 234 234
0.053907 0.015975 0.027774 255 255 255
0.096213 0.011195 0.010112 255 255 255
0.102700 -0.007960 0.035341 255 255 255
0.118341 -0.040812 0.061042 252 252 252
-0.087871 -0.016678 -0.064001 253 253 253
-0.075045 -0.026778 -0.017470 224 224 224
0.088137 -0.027797 -0.055163 206 206 206
-0.099530 -0.021999 -0.028840 232 232 232
0.027782 0.016174 -0.044081 255 255 255
0.027193 0.016157 -0.052439 255 255 255
0.064199 -0.014259 0.035909 255 255 255
0.004200 -0.026806 -0.004678 225 225 225
0.063204 -0.002863 -0.080001 247 247 247
-0.037980 0.018283 0.023819 255 255 255
0.063754 -0.027887 -0.044809 227 227 227
-0.055281 -0.027394 -0.017439 224 224 224
0.111263 -0.032212 0.062691 255 255 255
-0.085664 0.011197 -0.071488 255 255 255
-0.105055 -0.008346 -0.036832 253 253 253
0.119468 -0.034972 0.043841 248 248 248
-0.118379 -0.031321 0.039591 253 253 253
0.101110 0.019902 -0.027487 255 255 255
0.029629 -0.026806 0.018449 225 225 225
-0.066215 -0.037781 0.036073 249 249 249
-0.055474 0.006109 -0.070280 248 248 248
-0.117421 -0.037271 0.027423 249 249 249
-0.012648 0.016168 -0.047761 255 255 255
0.102677 -0.022204 -0.016400 199 199 199
0.032628 0.025361 0.016325 255 255 255
0.011091 -0.002917 -0.063139 252 252 252
-0.078205 -0.050292 0.027879 225 225 225
0.076597 -0.025861 -0.034456 222 222 222
0.095735 -0.049269 0.016790 220 221 220
-0.029872 -0.000316 -0.063187 242 242 242
0.031966 -0.025694 -0.055349 230 230 230
-0.084925 -0.056077 0.038870 226 226 226
0.093032 0.019902 -0.008123 255 255 255
0.053595 -0.027374 -0.021370 223 223 223
-0.102156 0.009782 0.005125 255 255 255
-0.006333 0.016163 -0.049889 255 255 255
-0.098771 -0.036869 0.003123 243 243 243
-0.120820 -0.039685 0.047237 254 254 254
-0.101979 -0.025832 -0.009036 244 244 244
-0.015776 0.016410 -0.002164 254 254 254
-0.082542 -0.016411 0.051334 255 255 255
0.106315 -0.035770 0.006984 207 207 207
-0.094893 -0.022803 -0.042926 224 224 224
-0.019872 0.016167 -0.049372 255 255 255
0.079598 -0.025727 -0.025065 220 220 220
-0.080782 -0.047140 0.016516 226 226 226
0.097568 -0.007607 0.039268 255 255 255
-0.068606 0.015883 0.012704 255 255 255
0.060072 -0.030849 -0.069306 245 245 245
0.083864 -0.043446 0.068388 255 255 255
-0.073049 -0.038483 0.011495 224 224 224
-0.102646 -0.056803 0.037311 228 228 228
-0.095102 -0.013461 0.048358 255 255 255
0.031338 0.006554 0.035473 255 255 255
-0.099387 0.010609 -0.048586 255 255 255
-0.039031 -0.026806 0.017136 225 225 225
0.055857 0.023534 -0.023616 255 255 255
0.104063 0.000837 -0.041540 242 242 242
0.033789 -0.012227 -0.061735 245 245 245
0.073997 0.019411 -0.061188 255 255 255
0.100840 -0.056627 0.052651 216 216 216
0.003969 0.011514 0.018662 255 255 255
0.062825 -0.006191 0.030390 255 255 255
0.083893 -0.030019 -0.059517 204 204 204
0.101646 0.006303 0.011553 255 255 255
0.063559 0.019244 -0.007272 254 254 254
0.028265 0.004497 0.034658 255 255 255
0.030071 -0.021489 -0.059313 236 236 236
0.070142 -0.028065 -0.079508 239 239 239
0.028144 -0.026806 -0.008097 225 225 225
-0.107369 -0.051507 0.066092 239 239 239
0.081538 -0.028474 -0.051451 223 223 223
-0.052965 0.017706 0.012611 252 252 252
-0.107038 -0.037807 0.009690 247 247 247
-0.106039 0.005138 0.005352 255 255 255
0.103843 0.010546 -0.042258 243 243 243
-0.056197 -0.014610 -0.069167 239 239 239
0.024982 0.037241 0.021593 255 255 255
0.113238 -0.046430 0.029041 204 204 204
-0.062348 -0.008639 -0.074956 245 245 245
0.070946 -0.026299 -0.032143 222 222 222
0.096255 -0.023335 -0.025815 218 218 218
0.096176 -0.021043 -0.047864 211 211 211
0.091304 -0.022180 0.059444 255 255 255
-0.001497 0.001312 -0.061443 231 231 231
-0.075242 -0.049771 0.036747 233 233 233
0.076001 0.016286 -0.072118 255 255 255
-0.023482 0.036850 0.020571 255 255 255
-0.087981 -0.022400 -0.057600 254 254 254
-0.108000 0.016489 -0.021146 255 255 254
0.049855 0.019902 -0.034488 255 255 255
-0.022617 0.005967 -0.062089 253 253 253
0.080479 -0.046421 0.063620 254 254 254
0.118930 -0.044299 0.040361 212 212 212
0.057338 -0.017863 -0.068497 247 247 247
0.077075 -0.022222 -0.079895 237 237 237
-0.098574 -0.008802 0.040285 255 255 255
0.066603 0.023156 -0.002864 255 255 255
0.067967 -0.016948 0.041340 255 255 255
0.100388 0.019902 -0.041165 255 255 255
0.024505 0.007633 0.032828 255 255 255
-0.019851 0.007563 0.029612 255 255 255
0.019046 0.002186 0.029332 255 255 255
-0.108183 0.007188 -0.006044 255 255 255
-0.047959 0.017144 0.032213 255 255 255
0.058860 -0.030423 0.007986 227 227 227
-0.082742 -0.019054 -0.068339 249 249 249
-0.107954 -0.012931 -0.017606 251 251 251
0.080041 0.016633 -0.069067 255 255 255
0.029175 -0.011900 -0.061807 245 245 245
0.120207 -0.037550 0.045948 249 249 249
0.102297 0.014714 -0.044844 245 245 245
0.096033 -0.035081 0.000417 218 218 217
0.093924 -0.004231 0.036377 255 255 255
0.108504 0.011213 -0.022975 247 247 247
0.070974 -0.004657 -0.077342 226 226 226
0.017710 -0.013654 0.027915 255 255 255
-0.078209 0.019851 -0.014855 253 253 253
0.082965 -0.025730 -0.022083 220 220 220
0.089950 -0.023918 -0.042132 218 218 218
-0.077739 -0.049190 0.056751 250 250 250
0.046617 -0.026806 0.010360 229 229 229
0.100863 -0.053698 0.027160 218 218 218
0.028725 0.037297 0.024392 255 255 255
0.028079 0.016194 -0.034061 255 255 255
-0.022260 0.038016 0.012164 255 255 255
-0.107619 -0.053167 0.032281 237 237 237
0.113134 -0.040937 0.021910 221 221 221
-0.113381 -0.013769 0.019559 254 254 254
-0.075213 -0.043205 0.016349 224 224 224
-0.063138 -0.034128 0.029310 242 242 242
-0.089005 0.020250 -0.003746 255 255 255
0.015781 -0.026806 -0.000436 225 225 225
-0.091317 -0.035317 -0.000006 237 237 237
-0.107571 0.006325 -0.001487 255 255 255
0.108156 0.011230 -0.029613 244 244 244
0.097730 0.019902 -0.012077 255 255 255
0.080400 -0.027045 -0.047182 222 222 222
-0.088999 -0.058363 0.046559 224 224 224
-0.107895 -0.011755 0.034324 255 255 255
-0.106522 -0.024430 0.056877 255 255 255
-0.092770 -0.029074 -0.008421 234 234 234
-0.068147 -0.001594 0.030756 255 255 255
-0.099282 -0.054926 0.029267 230 230 229
-0.056434 0.020250 -0.055380 255 255 255
0.081139 0.003964 0.027900 255 255 255
0.037213 -0.026806 0.011310 228 228 228
0.097678 -0.019664 -0.045783 213 213 213
0.031627 -0.005244 0.036031 255 255 255
-0.065494 0.025258 -0.010078 255 255 255
-0.076126 -0.033135 0.001053 227 227 227
0.014302 -0.008416 -0.062424 246 246 246
-0.108845 -0.021742 0.049850 255 255 255
-0.051709 -0.026806 0.023678 228 228 228
-0.036839 -0.017651 0.036337 255 255 255
0.119606 -0.039502 0.038652 207 207 207
-0.034513 0.040816 0.005525 255 255 255
-0.069998 -0.033066 -0.063585 219 220 219
0.057369 -0.025892 0.026920 254 254 254
-0.030737 -0.026806 -0.006712 224 224 224
0.042927 -0.026806 0.017787 227 228 227
-0.111977 -0.007345 0.000905 255 255 254
-0.045778 -0.027574 -0.012830 225 225 225
-0.097836 0.003223 0.021311 255 255 255
0.096084 0.006079 0.018217 255 255 255
-0.104349 -0.002244 -0.040821 254 254 254
0.102120 -0.022114 -0.018533 199 199 199
-0.063161 -0.028660 -0.004020 223 223 223
0.071951 -0.034823 0.006401 230 230 230
0.024348 -0.026806 0.011788 226 226 226
-0.082556 -0.027901 -0.073177 255 255 255
-0.083093 -0.024992 -0.032881 223 223 223
0.108034 0.008777 -0.008245 250 250 250
-0.055978 -0.005912 -0.071364 246 246 246
-0.063101 -0.027583 -0.011407 223 223 223
-0.075549 -0.027282 0.055541 255 255 255
-0.072388 -0.018928 -0.080898 250 250 250
0.063117 0.016134 -0.072458 255 255 255
-0.095731 0.005585 -0.052078 255 255 255
0.110824 -0.014746 0.033718 253 253 253
-0.084567 -0.009879 0.044980 255 255 255
-0.087852 -0.023121 0.059868 255 255 255
-0.050611 0.036760 0.003899 255 255 255
0.114593 -0.017905 0.025643 249 249 249
-0.034363 0.016201 -0.029716 255 255 255
0.081994 -0.051411 0.024329 233 233 233
0.008268 0.014961 0.007814 255 255 255
0.101595 -0.057637 0.050060 212 212 211
0.053475 0.016732 0.028227 255 255 255
0.115808 -0.023827 0.018090 242 242 242
0.090924 -0.023168 -0.054310 231 231 231
-0.105239 -0.024499 -0.006829 247 247 247
-0.110866 -0.055366 0.044672 230 230 230
0.068971 -0.025425 -0.079903 241 241 241
-0.107636 0.005295 0.000260 255 255 255
-0.013882 0.007709 0.021790 255 255 255
0.047082 -0.006581 0.033993 255 255 255
0.104299 -0.056284 0.036780 218 218 218
-0.006654 0.015041 0.006286 255 255 255
-0.079693 0.019851 -0.044859 255 255 255
-0.059871 -0.023730 -0.068350 243 243 243
0.037026 0.016175 -0.044112 255 255 255
0.088227 0.023172 -0.018675 255 255 255
-0.108585 0.000170 0.007870 255 255 255
-0.043870 0.009837 -0.061395 255 255 255
0.112376 -0.034610 0.064393 255 255 255
0.116877 -0.026297 0.026302 246 246 246
0.034874 -0.003268 -0.063098 252 252 252
-0.029296 -0.026806 -0.034659 224 224 224
0.063452 -0.007976 -0.075254 246 246 246
0.035357 0.016429 -0.033245 255 255 255
-0.030815 -0.026806 0.015452 225 225 225
0.032128 0.039109 0.021955 255 255 255
-0.078434 0.019851 0.002036 255 255 255
-0.090457 -0.057787 0.040365 223 223 223
-0.069484 0.025429 -0.041240 255 255 255
-0.107200 -0.002817 -0.033295 254 254 254
0.015868 -0.026806 0.014889 228 228 228
-0.038756 -0.026806 0.019248 226 226 226
-0.110138 -0.008852 -0.015988 252 252 252
0.115995 -0.022240 0.025101 247 247 247
-0.045794 0.020250 -0.049829 255 255 255
0.036321 -0.026806 0.016035 226 226 226
-0.046874 0.016273 -0.052673 252 252 252
0.098672 0.005973 -0.049261 244 244 244
0.052561 -0.026806 0.026845 232 232 232
-0.094576 0.019924 -0.052299 255 255 255
-0.072168 0.019851 -0.044235 254 254 254
-0.090392 0.020250 -0.001356 255 255 255
0.102812 -0.009517 -0.041221 233 234 233
0.057120 -0.027259 -0.035252 224 224 224
0.002257 0.014884 0.009176 255 255 255
-0.078920 -0.009565 0.043353 255 255 255
0.037695 -0.028339 -0.012040 235 235 235
0.116418 -0.051492 0.048325 194 194 194
0.108595 -0.021995 0.050592 255 255 255
-0.064905 -0.029046 0.039110 255 255 255
-0.010559 -0.025510 -0.055328 228 228 228
0.112130 -0.016678 -0.003745 227 227 227
0.065534 0.022976 -0.047403 255 255 255
-0.063344 0.018446 0.011011 255 255 255
0.044884 0.019812 0.013664 255 255 255
-0.101175 -0.014242 -0.042120 253 253 253
0.108483 0.009037 -0.020990 246 246 246
0.093927 -0.050799 0.068728 250 250 250
-0.015810 -0.010892 -0.062028 247 247 247
0.075945 0.019203 -0.029967 255 255 255
0.077358 -0.025835 -0.026634 221 221 221
0.069492 0.023560 -0.007241 255 255 255
0.098499 0.009049 0.011096 255 255 255
-0.082721 -0.020672 -0.069359 254 254 254
-0.098114 0.020250 -0.009136 255 255 255
-0.035794 0.038586 0.023936 255 255 255
-0.114751 -0.047235 0.033007 246 246 246
-0.047442 0.033010 0.023672 255 255 255
-0.090874 -0.040353 0.005172 237 237 237
0.085078 0.013638 -0.071718 248 248 248
0.079982 -0.019940 0.053528 255 255 255
0.071934 -0.036979 0.010014 232 231 231
-0.009407 -0.007220 0.021479 255 255 255
-0.023209 -0.026806 -0.030622 226 226 226
0.105854 -0.035581 0.070583 255 255 255
-0.112356 -0.028518 0.055809 255 255 255
0.106376 -0.052237 0.028957 210 210 210
-0.046536 0.037183 -0.000555 255 255 255
0.068505 -0.011773 0.038864 255 255 255
-0.058908 -0.029692 0.003591 223 223 222
0.068046 -0.026735 -0.036148 222 222 222
-0.026857 -0.025922 0.033674 253 253 253
0.013129 0.007882 0.020401 255 255 255
-0.009769 0.011833 -0.058760 255 255 255
-0.088032 0.020250 -0.007240 255 255 255
0.031695 -0.026806 0.012276 226 226 226
0.047238 0.016658 0.000139 252 252 252
0.007497 0.016171 -0.045225 255 255 255
-0.120803 -0.040567 0.052704 254 254 254
-0.060766 -0.032428 0.016330 224 224 224
-0.030888 -0.026806 0.012344 225 225 225
0.106692 -0.012913 0.038406 255 255 255
0.022041 0.011280 0.031148 255 255 255
-0.009419 0.015239 0.000503 255 255 255
0.072922 -0.037481 0.010142 231 231 231
0.101477 -0.007193 -0.044580 237 237 237
-0.003771 0.014000 -0.056046 255 255 255
0.110122 -0.056661 0.049848 211 211 211
0.021433 -0.026806 0.012118 226 226 226
0.025741 0.038997 0.016766 255 255 255
-0.034420 0.019479 0.021069 255 255 255
0.028527 -0.026806 0.024404 225 226 225
0.004027 0.015200 0.001704 255 255 255
0.112938 -0.031123 0.058831 254 254 254
0.056191 -0.010091 -0.071085 252 252 252
-0.064670 0.020111 -0.035488 252 252 252
0.079197 0.001461 0.031129 255 255 255
0.100867 -0.036787 0.072688 255 255 255
-0.085282 -0.018028 0.053819 255 255 255
-0.038458 -0.028109 -0.029673 224 224 224
0.059385 -0.026996 -0.031277 224 224 224
0.033554 0.013923 -0.056131 253 253 253
0.030628 0.020011 0.005096 255 255 255
0.034717 0.016194 -0.034227 255 255 255
0.055182 0.019902 0.012220 255 255 255
0.016956 0.019112 -0.003161 255 255 255
-0.094256 -0.039513 0.004672 240 240 240
-0.011876 -0.008498 -0.062411 247 247 247
0.055971 -0.029363 0.004815 226 226 226
-0.001383 0.016174 -0.043676 255 255 255
0.101093 -0.047566 0.016338 212 212 212
-0.027241 -0.026806 -0.003146 225 225 225
0.071355 -0.008191 -0.076329 236 236 236
0.067150 -0.035033 -0.077446 240 240 240
0.091589 -0.059062 0.051060 226 226 226
0.046077 0.010427 -0.060411 254 254 254
-0.115053 -0.044493 0.030429 247 247 247
0.069106 -0.036575 0.045382 247 246 247
0.101903 0.019902 -0.012781 255 255 255
0.115930 -0.037559 0.023949 216 216 216
-0.002946 0.016156 -0.052590 255 255 255
0.070464 -0.034315 -0.072929 233 233 233
0.084283 0.019902 -0.050984 255 255 255
-0.020572 0.036391 0.015349 255 255 255
-0.115808 -0.037115 0.061899 254 254 254
-0.009256 0.016098 -0.025928 255 255 255
0.110198 -0.027757 0.057619 255 255 255
0.077680 0.019203 -0.033691 255 255 255
-0.075982 -0.030393 -0.078650 248 248 248
0.105774 -0.002326 -0.037686 235 236 236
-0.004580 0.016178 -0.041927 255 255 255
-0.098163 -0.049247 0.070618 250 250 250
0.116950 -0.050221 0.044537 195 196 196
-0.112281 -0.011978 0.021743 254 254 254
0.003993 -0.008887 -0.062349 248 248 248
0.002094 0.002564 0.020846 255 255 255
-0.083010 -0.021520 0.056540 255 255 255
0.027578 0.017243 -0.000893 254 254 254
-0.019980 0.016182 -0.040149 255 255 255
0.041676 -0.026806 0.022935 228 228 228
-0.052007 0.020250 -0.039909 255 255 255
-0.074229 0.014003 0.014762 255 255 255
-0.016321 -0.021363 -0.059431 235 235 235
0.075499 -0.003574 -0.080751 235 235 236
-0.076845 -0.013249 -0.080345 254 254 254
-0.058378 0.016003 -0.071191 255 255 255
-0.090585 -0.016170 -0.055551 254 254 254
-0.040501 0.020250 -0.042214 255 255 255
0.063437 0.022082 -0.006241 255 255 255
0.114627 -0.018535 0.027456 250 250 250
-0.100037 -0.059082 0.055656 226 226 225
-0.000711 0.016166 -0.047389 255 255 255
0.015510 -0.026806 -0.039143 224 224 224
-0.104493 0.020250 -0.028590 255 255 255
0.087964 -0.012897 -0.065853 236 236 236
0.025002 -0.006588 0.033788 255 255 255
0.065597 -0.027251 -0.015221 222 222 222
0.093277 -0.023024 -0.034683 220 221 221
0.088175 -0.041581 0.006720 226 226 226
-0.101753 -0.006159 -0.044404 255 255 255
0.093217 -0.016045 -0.053159 238 238 238
-0.002345 0.014774 0.011132 255 255 255
0.082150 -0.012576 0.047364 255 255 255
-0.016011 -0.026806 0.016587 226 226 226
-0.099738 0.013841 0.002870 255 255 255
-0.004079 0.016181 -0.040454 255 255 255
-0.042098 0.002479 0.035413 255 255 255
0.041301 -0.024390 0.035224 254 254 254
0.023114 -0.026806 -0.050882 226 226 226
-0.081337 -0.028569 -0.010141 227 227 226
0.112334 -0.030436 0.009227 217 217 217
0.059929 0.019902 -0.052248 255 255 255
0.054010 -0.030448 -0.054715 232 233 232
0.097792 -0.007682 -0.049579 239 239 239
-0.076405 -0.035410 0.004272 227 227 227
-0.038513 -0.026806 -0.001866 227 227 227
0.079910 0.019203 -0.047852 255 255 255
-0.086046 0.006350 0.023593 255 255 255
0.064840 0.022615 -0.039550 255 255 255
0.065266 0.023190 -0.006247 255 255 255
0.074211 -0.022879 0.051365 255 255 255
0.111695 -0.006145 -0.001245 246 246 246
0.077569 -0.002556 -0.080469 239 239 239
0.100167 0.015007 -0.047866 243 243 243
0.033592 0.041164 0.010688 255 255 255
-0.109762 -0.013829 -0.011881 251 251 251
0.083721 0.019203 -0.016989 255 255 255
-0.088897 0.025361 -0.028319 255 255 255
-0.048477 0.018579 0.009035 255 255 255
-0.029726 -0.026806 -0.019244 224 224 224
0.078954 -0.026053 -0.078732 231 231 231
0.087600 -0.057144 0.040429 230 230 230
-0.002617 -0.002235 0.021517 255 255 255
0.035708 -0.015396 -0.061038 244 244 244
0.115561 -0.032838 0.018631 225 225 225
-0.101800 -0.051438 0.022964 237 237 237
