ply
format ascii 1.0
element vertex 1294
property float x
property float y
property float z
property uchar red
property uchar green
property uchar blue
end_header
0.087881 4.822974 0.884860 86 73 96
0.354175 6.385009 0.094960 40 31 49
0.543422 2.356746 -0.174909 7 4 15
0.462803 3.835488 -1.301651 64 54 84
-0.614009 3.560479 0.741967 57 47 72
0.976443 4.848299 -0.338540 76 61 97
-0.772136 3.097861 -0.664892 6 3 12
-0.409820 3.332692 -1.172955 58 49 79
-0.307506 5.010027 -1.126056 94 75 114
-1.087446 3.147365 -0.121180 59 50 78
0.784990 3.754106 0.635500 60 50 80
1.074410 -0.000016 0.338613 1 1 2
0.264908 4.137685 0.856282 58 52 40
0.625528 3.824171 0.763445 62 52 81
0.344635 -0.000021 0.413484 0 0 0
1.206766 0.247835 1.008870 53 44 71
-0.734197 2.807507 0.159773 53 44 74
-0.824534 3.515092 -0.970228 35 29 49
0.898582 3.971341 0.506568 69 60 88
0.759477 5.728721 0.344515 103 87 127
0.568898 3.667878 -1.220101 62 53 83
-2.570526 2.160386 0.086590 69 61 87
0.816012 5.052887 -0.623365 67 55 82
0.305800 0.288420 0.430679 68 57 93
0.500731 5.303656 0.788504 69 61 65
-1.069783 0.193964 0.320935 17 14 25
-1.554791 2.318079 0.232635 71 60 94
-1.009276 3.691536 -0.762387 32 25 45
-0.580789 2.553252 -0.271087 8 5 18
-0.200438 -0.000015 0.616984 2 1 4
-0.313254 3.817942 0.896990 68 56 82
0.250510 0.222060 1.083563 59 49 80
0.571426 4.860013 0.755971 50 39 69
-0.000190 2.823003 0.474622 37 30 52
0.532968 5.745020 0.154939 86 73 111
2.274327 2.926313 0.092907 77 66 95
0.363692 5.599770 -0.538093 82 70 99
0.775528 3.209028 0.407167 56 47 76
0.777659 4.230843 0.737808 55 34 60
0.647771 0.444298 -0.542341 93 79 118
1.606986 3.990414 -0.121346 59 50 80
-0.335819 4.431136 0.809266 11 8 7
-1.194206 5.261036 0.378803 46 40 57
-0.605260 4.745204 -1.100512 81 67 103
0.959661 3.735523 -0.866544 53 44 72
0.465976 6.041159 0.102362 74 63 97
-1.654195 1.620579 0.306018 44 34 57
0.461780 0.975607 -0.103799 71 60 94
-1.028286 3.376255 -0.349504 36 29 51
0.861959 0.311991 -0.436578 62 53 81
-0.405217 4.409894 0.585139 0 0 0
-2.019458 3.052407 0.096903 66 56 89
-2.071173 3.504521 -0.199476 80 68 103
-0.031293 2.529029 -0.277328 18 13 30
-0.709934 2.965494 0.308457 51 42 70
0.975850 0.695698 0.094989 64 54 85
0.891511 0.452719 0.598807 91 77 116
1.228542 5.430165 0.638613 25 19 33
-0.674726 2.390835 -0.018136 39 32 56
-0.492901 5.888450 0.061680 69 57 93
-0.263598 4.662918 -1.283086 91 75 113
-1.354288 2.073493 0.301900 65 52 84
0.772802 5.120400 -0.636470 90 74 112
-0.438119 1.796828 0.052722 74 68 90
-1.033789 4.662768 -0.473880 116 106 131
1.506061 1.892394 -0.281414 86 75 110
-0.899511 0.443748 0.640455 94 81 120
-0.460778 5.101158 0.741260 67 63 54
-2.154679 3.160555 0.062671 45 37 60
1.074173 2.849485 -0.039983 11 6 22
-2.260915 2.482019 -0.403481 88 72 111
1.707648 1.945416 0.021449 63 53 85
1.548322 1.982008 -0.178788 58 48 79
1.903784 1.970692 0.113980 48 38 68
0.473375 3.784902 0.837241 68 58 83
-0.557337 2.495642 -0.243178 8 5 17
-1.185142 2.582097 0.214261 66 56 86
-0.727449 5.728986 0.344386 99 83 123
0.956502 4.964852 -0.301724 70 57 91
-0.125992 4.668188 -1.307857 96 81 115
0.004733 2.501960 0.118122 24 18 38
-2.327371 2.798749 -0.250450 63 49 80
1.239201 2.852356 -0.104926 44 36 62
1.633361 1.911983 0.308485 62 52 82
-0.908104 3.137385 -0.373357 25 19 40
-0.452702 1.104385 0.090310 49 41 69
-0.790178 5.249650 0.795713 34 27 18
-0.360434 0.497522 0.242475 68 56 92
0.507784 1.378385 0.178029 60 49 82
1.710423 1.638006 0.035137 70 58 91
2.110697 3.394574 -0.036701 65 56 85
-0.845467 3.163769 -0.624733 10 6 19
1.910807 2.282787 -0.006959 62 48 81
-0.781879 3.482181 -0.999172 40 32 55
2.463519 1.792999 0.057826 17 13 27
-1.064441 3.832031 -0.680455 28 22 40
-1.242777 2.986127 0.075879 41 32 52
0.083048 6.323995 0.187790 99 85 124
-0.160507 3.289639 0.811970 51 42 62
0.765172 4.789395 -0.933307 87 72 108
-0.077345 6.490696 0.380778 72 69 77
1.311947 1.482237 0.109404 40 32 58
-1.428153 4.112899 -0.364959 76 63 99
0.764336 0.331597 0.673064 68 57 93
1.091161 5.093722 0.077388 46 38 64
0.640883 -0.000016 -0.761043 1 1 1
0.869589 0.333586 -0.329296 69 59 91
2.010396 2.942749 -0.253274 62 50 83
-0.544633 0.183570 -0.858503 35 29 50
1.624633 2.162922 0.247285 65 54 87
-0.218919 6.175922 0.442159 70 61 79
-0.431879 4.858975 -1.150879 93 75 114
-0.683940 1.280290 0.177448 62 53 83
0.564047 -0.000017 0.354543 1 1 1
-0.328288 2.426780 0.216319 42 34 59
0.080781 4.083383 0.963976 25 16 31
-2.248560 2.170118 -0.305056 21 15 36
1.061118 4.574557 -0.517655 105 100 111
-0.648245 2.040231 0.064746 62 52 87
-0.788099 5.605202 0.039474 103 84 126
0.205843 2.660112 0.344858 37 30 53
-1.043701 0.401361 1.030178 74 66 83
-0.507420 0.238323 -0.801153 29 23 41
-0.428644 2.749760 0.387868 45 37 62
-0.344018 0.418250 0.179519 59 50 83
-0.975306 3.479736 0.281586 61 51 83
-0.610220 2.775610 -0.465428 8 5 17
-2.354058 2.550462 0.154336 63 53 83
0.788420 2.866144 0.030865 54 44 74
-1.085324 3.542166 -0.229578 45 38 62
-0.637404 -0.000015 0.324266 0 0 0
-2.244691 2.376108 -0.103074 23 18 38
-0.525994 5.169946 -0.901227 92 74 114
1.863878 3.480269 0.023052 69 59 90
1.186625 0.127350 1.001802 42 35 58
-1.122293 -0.000014 0.335665 3 2 4
0.486144 -0.000017 -0.038594 0 0 0
-1.110685 4.740661 0.490805 17 12 29
-1.422987 2.211642 0.310228 71 57 91
0.720028 1.421549 0.017734 60 50 84
0.466250 3.474082 -1.212493 40 33 54
-0.932503 0.282203 1.244082 43 35 51
-0.663061 5.223838 -0.698089 91 75 113
1.746239 1.885271 0.066060 63 53 86
-0.929520 0.240404 -0.116237 17 14 24
-1.040790 4.822832 0.071798 52 43 71
0.138315 2.428394 0.057019 21 15 37
0.611011 4.798972 0.707401 41 33 58
-0.272390 5.788141 0.551224 79 77 66
1.204048 2.334448 -0.084014 60 50 81
0.491383 5.934056 0.221234 62 51 83
-0.296368 2.372248 -0.150710 11 8 21
1.079470 0.401010 0.307452 57 48 77
-1.762781 3.472265 -0.044316 15 10 31
1.003607 4.723473 0.300964 39 32 55
0.030639 4.105914 0.910511 95 91 80
0.649462 3.914941 -1.200602 63 53 83
-0.388757 6.088281 0.351762 98 90 112
0.972270 5.094080 -0.193974 69 57 90
-0.807480 2.928725 -0.238364 10 6 22
-0.502814 -0.000014 -0.186699 19 15 29
-0.591013 1.852926 0.144603 72 64 91
-0.979069 4.826145 -0.369199 83 68 104
0.685242 4.881995 0.781717 74 56 81
0.313765 3.764714 0.892684 68 56 81
-1.587070 2.076509 0.294259 54 46 63
0.102763 -0.000017 0.448191 22 17 33
-1.417522 2.664114 0.124182 74 62 100
-0.235171 4.682797 -1.283876 87 71 109
0.970692 3.531502 0.311284 63 53 83
-0.436047 2.451365 0.240824 54 45 75
0.639816 2.193730 0.087230 57 47 76
1.054959 4.292434 0.185693 56 47 76
1.545946 1.717361 0.211804 56 42 78
-0.936185 0.683419 0.318021 73 61 93
-1.793676 3.380037 -0.149074 16 10 32
-1.832712 3.408384 -0.246755 26 21 39
-0.425644 0.182989 1.343977 41 33 49
-1.219678 2.257609 -0.091390 53 43 73
1.895491 3.067308 -0.128983 54 44 77
-0.412426 3.976455 -1.332616 73 62 95
0.161912 6.296092 0.006101 71 61 93
-0.983530 4.199031 -0.843842 106 103 113
0.326186 -0.000013 0.807164 9 7 13
1.975095 3.681150 -0.207206 69 58 93
0.249418 0.331084 0.748167 80 67 104
-0.622036 0.313593 0.917561 68 56 94
-0.686691 1.645387 0.112252 66 56 92
-0.757147 5.400997 0.834415 45 26 37
-0.068823 2.608678 -0.433898 20 16 33
1.559684 4.136541 -0.244787 77 65 100
2.525523 2.393441 0.085139 60 49 77
0.283931 5.561624 -0.651423 98 83 119
0.445191 4.616910 -1.235115 82 68 104
-1.138880 2.371015 0.137296 58 48 81
-1.639278 4.034997 -0.298608 89 76 114
-0.620859 0.967878 -0.180493 91 82 108
0.065771 4.502063 -1.357119 87 72 110
1.194057 -0.000019 0.761503 1 1 1
0.264394 3.919842 -1.374503 67 57 88
1.133063 5.389469 0.587124 50 40 68
0.001448 4.825375 0.891627 82 69 89
0.699522 -0.000013 0.148447 1 1 1
-0.930767 3.611179 0.422794 57 48 76
0.581232 4.102079 0.922554 55 35 60
-0.446378 2.765622 0.389417 44 37 62
-0.815468 5.218299 -0.459070 94 86 106
-0.664672 3.458517 0.670342 52 43 68
0.358547 0.166133 1.161621 45 37 61
0.842630 0.891460 0.229731 75 63 94
-1.794787 3.855437 -0.300511 85 73 109
0.538632 1.850036 0.152044 73 65 92
1.997279 2.925769 -0.243846 61 49 82
0.708201 2.577671 0.070008 55 46 76
0.232084 5.561043 -0.680416 100 85 123
-2.341226 2.043334 -0.676423 24 20 34
0.146688 3.413110 0.874371 64 54 74
-0.080555 5.083608 -1.137194 102 82 124
-1.792613 3.370827 -0.107863 17 11 34
0.134355 5.438285 0.541779 67 56 89
0.833562 2.962205 -0.187319 11 6 23
0.629752 5.684287 0.130833 98 84 121
-0.870335 5.486073 -0.052487 99 82 120
1.045464 0.354794 1.148446 62 54 72
0.254776 6.264074 0.039330 145 140 155
-0.494495 -0.000017 -0.058928 0 0 0
0.791694 -0.000015 -0.560944 0 0 0
-2.259010 3.154238 -0.119894 74 63 97
-2.401408 2.179603 0.137477 63 52 82
0.546650 1.049298 -0.142647 74 63 97
0.772158 4.574098 0.579842 65 55 87
1.116595 1.476346 0.071984 72 64 95
0.367508 2.934253 -0.851367 12 9 20
0.681930 5.461179 0.806849 70 58 89
-0.227628 3.782750 -1.368502 60 50 79
0.679199 4.537298 0.751368 65 43 70
1.080340 4.437620 -0.577897 70 58 91
-0.242560 -0.000016 -0.206493 13 10 19
2.275834 2.670211 -0.315558 81 67 103
-1.018982 4.631879 0.206956 61 51 82
-0.126173 5.861370 0.613076 64 41 22
0.912366 4.287881 -0.933792 65 55 86
-0.985424 3.712802 0.339278 60 50 80
-0.079947 3.366032 0.860734 65 54 75
0.196911 6.205880 -0.156182 95 79 118
0.217157 4.815245 -1.241353 59 50 71
-0.873129 2.997166 0.037690 17 13 28
1.908205 3.082973 -0.178575 55 45 77
-0.046709 3.840074 -1.398704 65 54 86
0.883114 0.270168 1.116980 45 37 62
1.162425 -0.000017 0.716528 1 1 1
0.869555 0.783043 -0.105553 72 60 95
2.557895 2.169904 -0.089013 67 58 88
0.164863 5.539558 -0.736165 94 77 117
1.115937 3.737809 -0.380039 22 17 35
-2.157243 2.966019 -0.281182 77 63 99
-1.183762 5.281271 0.281782 65 55 86
2.446189 2.548408 0.128901 69 57 90
0.273817 -0.000016 0.951593 1 1 1
-1.181956 1.672576 0.043276 67 58 86
-0.804873 2.980432 -0.371382 12 8 23
1.025805 0.287657 0.098302 41 34 57
0.066950 6.355388 0.357263 49 37 66
2.144037 3.385840 -0.168765 77 66 100
-0.573251 4.343889 -1.234788 78 66 101
-1.363202 2.672193 0.182556 69 60 81
0.252666 5.663683 -0.535040 93 78 118
0.948871 4.924105 -0.369079 75 60 95
0.286314 3.271875 -1.182233 29 23 40
1.760040 1.415606 0.300071 36 28 46
-1.092752 3.092806 0.127429 58 49 79
-0.547368 2.993521 0.467367 54 45 74
0.678949 3.693902 0.719340 61 51 79
-0.114957 5.041162 -1.156186 100 80 122
2.289442 2.716315 -0.289522 75 60 97
-0.387638 3.405812 -1.216698 43 36 59
0.109656 5.758917 -0.482949 123 116 137
1.163423 5.415932 0.421618 65 55 86
-1.071455 0.408223 0.956081 43 33 54
-0.508363 3.181818 0.614113 48 39 62
0.305996 2.295034 0.100665 43 35 63
0.551229 3.648637 -1.224916 48 40 66
-1.304480 4.348592 -0.235322 90 77 114
1.059079 0.458219 0.445759 58 47 76
-1.332901 2.369570 -0.130312 66 55 87
-0.676815 3.088346 0.430814 51 43 71
0.487555 0.309326 -0.456057 52 43 71
-2.181982 3.023341 -0.275292 76 63 99
2.568088 2.301912 -0.027983 60 50 80
0.543920 5.309667 0.813662 70 67 66
-2.495938 2.028605 -0.146750 66 55 87
0.985213 0.122760 0.244701 10 8 14
-0.934473 0.733781 -0.036515 71 60 95
-1.600493 3.691423 -0.128900 16 11 34
0.625428 0.389477 -0.815840 62 52 74
-0.439709 1.058938 0.042910 63 52 87
1.084116 5.472148 0.132521 84 69 105
-0.627675 5.008594 -0.935672 74 58 91
0.993338 4.396642 -0.773740 70 59 92
-0.515377 -0.000014 1.211248 19 15 27
0.550736 1.493139 -0.075786 66 56 86
1.569544 1.852545 0.012535 24 18 44
-1.213209 1.933176 0.007430 52 43 73
1.579039 1.715113 -0.249140 14 10 28
1.030158 -0.000011 0.570981 1 1 1
0.692875 0.513074 0.505395 76 64 100
-0.400651 0.352020 1.163937 47 38 56
-0.376260 5.018559 -1.093986 93 76 114
-0.648173 1.668844 -0.046077 69 61 90
-1.730755 1.780595 0.276103 66 54 86
-2.359498 2.088262 -0.598793 28 23 40
1.774421 3.627054 -0.317040 56 47 76
0.605708 1.829167 -0.063777 60 51 81
0.389774 3.585209 -1.281176 48 40 65
1.290998 2.929074 0.044285 72 62 98
-0.021239 5.906149 -0.383558 91 75 113
1.006406 3.365032 -0.447230 47 38 66
-0.909743 3.139388 -0.371392 25 19 41
-0.338053 5.184119 0.672947 61 48 78
1.275442 1.609794 0.301616 61 49 79
-1.071446 5.117651 0.715364 65 48 76
-0.651190 -0.000019 -0.607586 0 0 0
0.745206 5.349247 -0.416976 104 93 122
-0.635388 4.065574 0.779605 47 39 65
-1.066754 4.652900 -0.209484 84 71 108
0.906110 3.920053 -0.971642 59 52 78
1.969514 1.990605 0.153386 89 85 92
1.148027 2.221025 0.118304 62 53 82
1.064844 4.960731 0.099988 51 42 70
0.936526 -0.000013 0.426690 0 0 0
-0.232997 4.935664 0.775899 84 69 102
1.782209 1.492430 0.269427 44 33 57
2.051751 2.512221 -0.204685 30 23 47
1.448320 4.203228 -0.329981 87 75 112
0.585321 3.648626 0.773639 62 52 79
-0.688171 4.793691 0.683804 38 24 49
-1.121455 5.035710 0.203047 41 34 57
2.297787 2.076240 -0.361595 55 45 77
0.807287 5.628265 0.074609 101 85 122
-0.631842 3.464405 -1.113796 38 31 52
1.175960 5.195171 0.263894 54 46 71
-0.819930 3.462561 -0.948678 32 26 46
0.716878 2.683973 -0.177004 13 9 27
-0.201465 5.743696 -0.459924 95 82 118
-1.085688 4.160381 0.119444 61 52 82
0.960849 3.394708 -0.658121 8 5 17
-1.986241 2.423174 0.127209 63 51 86
-0.959087 5.514428 0.703967 93 84 108
0.541400 0.449965 0.577879 70 58 94
0.979668 4.808161 0.436104 37 31 52
-0.976134 3.839394 0.374454 63 53 84
0.819015 4.328671 0.639903 62 46 76
1.033346 -0.000012 0.768578 1 1 1
0.362940 3.025265 -0.963402 10 7 17
0.945272 4.364519 -0.865489 69 57 90
1.795742 1.390244 0.139685 51 42 68
-1.677986 3.798370 -0.338975 61 51 81
1.142136 0.354034 1.018092 80 67 103
1.802277 1.597615 0.147964 56 47 76
0.500342 -0.000015 0.817663 1 1 1
0.585528 2.077393 0.142586 58 48 78
-0.559347 2.027722 0.148853 73 64 93
-2.494218 2.149273 -0.126813 66 56 88
-0.043341 6.276810 -0.111070 77 63 97
-0.433371 2.829126 -0.664359 12 9 22
-0.205398 2.474783 -0.224709 16 11 27
-0.348497 0.463191 0.137006 62 51 86
0.272669 3.046164 0.623255 42 34 55
-2.051770 2.699084 -0.264205 61 49 80
-2.486505 1.920462 0.152220 48 42 54
1.154534 2.790335 -0.092925 61 51 82
-2.195756 3.217878 -0.009748 62 51 82
-1.207640 2.081857 -0.037166 46 37 64
-0.683495 0.294548 -1.009569 67 59 75
1.936806 1.996669 0.137902 61 56 70
-2.107393 2.558568 0.146839 73 61 95
1.507830 1.438815 -0.365442 23 18 37
-1.736758 3.810365 -0.063211 62 54 83
1.154017 4.009818 -0.433651 8 6 16
1.435046 1.527894 -0.535932 48 37 59
1.990342 3.355284 -0.291313 66 56 88
-0.450538 0.297044 -0.278954 11 8 20
-0.951063 3.574350 -0.821467 28 22 41
0.037412 4.885629 -1.237816 97 78 118
2.491625 1.862497 0.139245 37 31 43
0.973374 -0.000018 -0.387392 1 1 1
0.075322 3.705881 0.936358 73 62 82
0.825045 3.039615 -0.433051 33 27 51
1.383917 2.708295 0.132555 69 59 92
1.089796 3.501543 -0.069414 54 44 73
-1.031428 3.532607 0.177586 62 53 84
2.302854 2.427978 -0.429490 86 70 107
-0.156660 4.761550 -1.272575 82 65 103
-0.634336 4.926811 -0.985307 95 78 117
-2.177137 2.312829 0.083149 55 44 78
-0.987758 -0.000013 1.101897 0 0 0
-1.132276 5.106980 0.174079 43 35 59
0.370380 6.167143 0.013772 70 60 87
-2.126301 3.371885 -0.039707 69 58 91
0.479080 0.186481 -0.451469 30 24 44
0.849123 5.119276 0.820345 67 58 60
0.578837 1.881433 -0.079699 60 50 81
-1.457412 1.629000 -0.497581 66 57 74
0.858755 -0.000010 -0.328182 7 5 10
0.649704 0.277972 -1.030865 65 55 72
0.904074 3.374215 0.351737 57 48 77
0.410802 1.985899 -0.011650 33 26 48
1.335568 2.074066 0.300447 66 53 85
-1.305286 1.713376 0.303550 53 41 68
0.521444 -0.000016 -0.589437 1 1 1
-0.347955 2.174541 0.051465 51 42 70
-0.227187 2.931043 -0.912104 13 9 22
-0.395678 0.380164 -0.125035 46 37 65
1.713903 3.899337 -0.329092 80 68 104
2.155490 3.355177 -0.078743 85 77 102
0.711306 3.343622 -0.987556 13 10 21
-0.064978 -0.000012 0.636649 1 1 1
1.767910 3.887065 -0.134093 60 49 74
0.805004 0.628004 -0.214083 77 62 97
2.032883 1.933021 0.147789 64 59 72
-2.482076 2.297698 -0.126977 63 53 85
-0.912366 5.357671 -0.119633 90 73 112
0.776393 2.895426 0.120908 57 47 78
-0.196958 4.377082 0.903515 39 33 30
-0.743925 0.064774 -0.835968 6 4 8
-1.074624 4.009276 0.111963 59 49 79
0.487363 6.051337 0.261776 27 18 42
-1.943634 2.861647 0.013708 78 69 100
0.312248 0.126323 1.120632 41 34 57
0.340150 4.937139 -1.152009 94 75 115
-0.973572 -0.000011 -0.265184 5 4 8
1.944947 2.902665 -0.171839 61 51 83
0.981764 0.562255 0.395428 73 61 94
2.041824 2.281116 -0.128026 54 43 74
-0.684868 1.518994 -0.023517 90 81 108
-2.165754 2.903707 -0.284772 75 61 95
0.168321 5.743455 0.616301 77 72 77
1.064838 4.650086 -0.308270 81 67 103
1.166385 0.166418 0.617984 24 19 34
0.859506 5.539738 -0.008609 96 78 117
0.780504 0.180575 0.873262 36 29 53
0.988643 4.638941 -0.643223 84 68 106
1.052562 4.485849 -0.613221 73 59 93
-0.936127 4.772295 -0.637729 79 65 96
-0.917859 0.444049 -0.130436 61 51 82
-1.766794 4.662572 0.443639 25 15 34
-0.027607 3.599889 0.928853 72 61 80
-0.506541 1.613311 0.176032 50 42 67
-1.128369 5.063051 0.624329 55 46 75
1.628935 3.870667 -0.344741 66 56 88
-2.364234 2.048278 -0.509404 39 32 54
-0.797165 3.602207 -1.035390 46 38 63
1.829911 3.303081 -0.075737 42 33 60
0.938507 5.677707 0.428677 95 80 119
2.065503 3.532920 -0.151754 71 61 91
-0.169190 5.606387 -0.650760 122 111 140
-0.346144 5.468496 0.593442 73 62 96
-0.768112 0.491320 -0.337533 83 70 106
2.356496 2.436572 -0.270972 54 45 73
-1.237048 4.192039 -0.429911 55 46 74
0.508095 0.373054 1.068795 47 36 59
-0.795227 0.715304 0.364458 73 59 94
0.681100 5.247255 0.790181 5 2 0
-0.529333 3.397247 0.728919 49 41 63
1.544409 2.027629 -0.169719 66 55 90
0.809366 4.603391 -0.969851 81 67 103
-0.006376 4.639374 0.961684 83 68 94
-0.883016 3.844198 -0.994365 96 94 100
2.034800 1.951788 -0.119539 27 21 39
-0.192326 -0.000016 -0.177342 0 0 0
1.385482 4.207466 -0.366695 75 64 98
-0.050962 3.603612 0.928689 94 86 100
0.702417 -0.000011 -0.265184 0 0 0
1.537479 2.116330 0.302339 52 42 63
-0.338264 2.404188 0.200269 44 36 61
-0.970579 4.743309 -0.568487 88 71 110
0.566564 2.872695 -0.623818 8 5 17
-2.201306 3.106481 -0.253498 67 58 90
-1.994108 3.582343 -0.049886 59 49 78
1.354565 4.223177 -0.125280 43 35 55
1.217985 4.166494 -0.437488 42 34 59
0.545201 4.316068 0.877791 79 73 59
0.632571 2.575659 0.210317 58 48 78
-0.975376 -0.000015 1.103739 1 1 1
-0.685030 5.721220 0.274369 95 80 119
-1.262989 2.349695 -0.113409 65 54 87
-0.961395 5.655350 0.253679 112 99 131
-1.044301 0.492558 0.204752 69 58 91
-0.575604 0.655723 0.373611 70 57 91
1.192748 0.298428 0.809037 69 58 91
0.444011 1.692144 0.023151 57 51 72
1.090980 4.372590 0.088721 51 43 70
-0.376897 -0.000016 1.163549 8 5 10
-0.816621 3.587174 0.574652 58 49 77
-0.189085 3.125923 0.700841 44 36 56
-1.210520 0.178197 0.956559 47 40 65
-0.612266 2.557435 -0.242065 9 5 19
-0.525818 1.118808 0.181924 64 52 85
1.043172 4.658487 0.057566 63 53 84
0.410632 2.476870 0.254801 50 41 70
-1.052168 -0.000011 0.570981 1 1 1
1.604675 1.688572 0.076327 35 28 53
-0.857589 5.595743 0.687343 67 52 86
0.629703 5.222413 -0.743605 97 81 120
0.911255 4.296161 0.457614 64 54 84
-2.040546 2.645445 0.117219 70 59 90
0.417974 4.622845 0.843100 73 59 93
0.813371 3.453721 0.523843 58 48 78
-2.552098 1.771130 0.083036 23 17 29
-1.031037 2.958974 -0.067037 23 17 40
-0.151311 -0.000014 0.184090 42 34 57
0.754171 4.491914 -1.066074 78 66 100
-0.975447 0.180299 0.094870 7 6 11
-1.910990 3.544630 -0.308250 66 55 87
0.006735 5.242385 0.635848 73 60 95
-1.494558 2.504992 -0.007532 84 70 109
-1.144089 4.486674 -0.380444 92 81 114
-0.232521 6.142748 0.469071 66 52 82
1.022676 5.061766 -0.067470 59 49 79
1.138996 4.504070 -0.146294 76 66 96
-1.381345 2.086437 -0.184880 76 65 100
-1.089634 5.545105 0.271872 81 73 92
0.977019 4.748201 -0.539782 81 65 102
-0.609223 2.703161 0.275536 55 46 75
0.308429 2.786145 0.437190 44 36 61
-1.971430 3.003298 0.069106 63 54 85
0.444480 4.289546 -1.305380 72 61 94
-2.494111 1.947241 -0.128481 32 26 46
0.966361 3.438551 -0.687891 8 5 16
0.580007 2.523575 -0.248218 9 6 20
0.486680 1.050855 0.177076 65 53 88
-0.853742 0.394636 0.864821 88 75 114
-0.577287 4.991519 -0.990107 98 85 116
1.843410 3.349867 -0.207477 29 22 48
-1.843238 3.805687 -0.111307 78 68 101
-2.161457 3.349691 -0.174572 83 71 107
0.404636 5.629598 0.501767 70 58 93
0.443731 0.342043 1.180602 43 34 53
0.624597 0.716017 0.358947 78 64 101
0.736567 5.601641 0.017784 101 84 123
0.438076 4.210310 -1.316323 69 59 91
1.146430 0.073828 0.998124 24 19 33
0.708382 5.330193 -0.501937 97 81 120
0.540718 4.137694 0.945861 67 45 68
-0.550466 3.542090 -1.194547 44 36 59
-1.767935 1.726267 0.093094 59 49 80
0.621477 5.165604 -0.811878 96 78 118
0.339391 2.252095 0.119231 46 37 66
1.861573 3.246912 -0.028478 53 42 77
0.595552 5.237792 -0.768019 97 80 119
-0.409516 4.799181 0.773721 70 60 89
-0.730295 2.650224 0.031458 57 46 77
-0.699433 4.564128 0.894495 99 97 82
-0.646522 -0.000016 1.030780 2 1 4
-0.891256 3.672807 0.498584 61 51 81
-0.858489 3.275192 0.355003 54 45 74
0.124342 6.319604 0.163118 166 163 173
-0.965591 3.558207 -0.784627 24 20 36
-0.546400 -0.000015 0.495981 1 1 1
0.269549 3.373804 0.830940 61 51 74
1.948349 3.248159 0.053878 35 25 47
-0.626531 4.475372 -1.175749 78 66 101
1.016323 3.941847 0.286191 62 52 83
-1.038920 -0.000017 0.427761 0 0 0
1.099026 0.396681 0.976500 52 38 66
0.464473 3.638993 0.828131 64 54 79
0.484932 0.220969 -0.723845 19 15 30
2.363749 2.399766 0.142910 59 47 78
-1.103866 3.922720 -0.016388 59 49 80
-0.830163 -0.000015 -0.306929 1 1 1
0.515272 5.771224 0.150002 87 78 110
-0.620728 -0.000013 -0.120744 13 10 19
-1.241820 2.653166 -0.119058 69 59 92
-0.399116 3.453088 -1.232709 54 46 72
0.325633 3.235157 0.734027 49 40 62
-1.466667 1.605086 -0.513379 62 54 71
-0.268847 5.166623 -1.044501 97 91 105
-1.823512 3.862657 -0.253116 89 77 114
-1.199219 0.254176 1.026383 59 49 79
-0.449300 1.126675 0.007582 60 50 83
0.750951 -0.000015 -0.478247 9 7 14
0.333839 4.536517 0.962105 80 53 85
-0.011714 3.299693 -1.240866 35 29 49
1.480392 2.566741 0.040129 87 78 107
1.939818 2.255449 0.116868 73 64 88
-2.563366 2.287959 0.082554 64 53 84
-0.835637 3.701987 -1.024496 47 39 64
0.408554 0.306080 -0.106818 36 28 53
-1.784370 1.387476 0.101325 18 15 27
-0.466455 0.220360 -0.235893 16 12 27
-0.883920 0.905178 0.077001 83 71 104
0.039095 5.876687 0.591943 6 5 2
-0.661927 2.710999 0.231236 59 49 81
-0.085330 4.113993 -1.404324 72 60 93
-0.036504 5.929859 -0.374089 90 73 112
-1.369413 2.779436 -0.029619 87 74 112
0.970567 3.093472 0.140409 31 25 47
0.802118 0.220822 -0.867886 61 52 81
-0.222945 -0.000012 0.440229 18 14 28
2.472560 1.951759 -0.128468 42 34 60
-2.006699 3.178277 0.077624 65 55 87
-0.995245 4.635398 0.285474 35 28 50
-1.718935 1.852882 0.258586 66 55 87
1.169907 5.402659 0.386533 64 54 85
2.182858 3.174817 -0.254431 72 60 93
-0.260514 4.526748 0.985023 76 53 85
-0.716107 4.162568 0.822889 60 41 70
-0.967752 0.712116 0.191582 74 63 97
0.514693 5.604294 -0.351923 89 76 112
0.020584 5.893802 0.670412 53 30 11
-2.126348 2.267088 -0.392246 17 12 32
0.916456 4.866863 -0.575086 85 69 104
-1.092866 -0.000016 0.702952 0 0 0
-0.886836 0.839614 -0.050342 72 60 94
0.538619 4.511338 0.861903 58 39 60
-2.203065 3.268015 -0.165817 114 106 132
0.374055 0.609980 0.076271 77 64 102
0.361598 3.693793 0.872116 70 57 84
1.056754 5.390582 0.691581 66 55 85
-0.944500 4.291500 -0.886514 69 58 91
-0.744421 5.726476 0.447169 96 81 119
-1.668367 4.721104 0.471309 30 23 42
-1.490695 2.252211 0.297328 77 66 94
2.423660 2.469271 -0.176972 46 37 64
0.713359 3.198617 -0.872758 5 3 11
-2.398417 2.442317 0.160876 67 56 84
0.925134 3.267453 -0.591811 8 5 17
1.014611 3.835446 0.284605 64 54 85
-1.231976 4.030817 -0.146263 20 14 34
-2.081238 2.750474 -0.279919 71 57 93
-0.673690 0.608196 0.426556 77 64 100
-1.516249 4.739597 0.484803 24 17 34
-2.588126 1.946945 -0.043117 35 29 49
-0.093684 3.888888 -1.399810 66 56 86
-1.164104 1.322297 0.286436 45 42 51
-0.678857 3.701392 -1.158941 60 50 79
-1.303049 4.308780 -0.366543 87 75 111
-1.922680 3.447114 -0.289548 50 40 66
-0.695219 4.395460 0.805930 43 37 31
1.702159 1.979404 0.261875 63 52 83
0.486252 4.545120 -1.236513 81 68 104
0.867534 -0.000010 0.375150 1 1 1
-0.024275 6.079858 -0.313944 71 56 87
-1.391926 4.554667 0.510441 25 17 35
-0.793331 5.660461 0.628878 60 47 80
-1.748465 3.518387 -0.248682 33 28 46
-0.691836 0.418506 -0.711650 49 38 62
1.242124 4.142736 -0.413164 21 16 31
2.131011 2.613393 -0.321859 74 61 96
1.367904 2.677520 -0.088717 72 61 95
1.956860 1.957841 -0.127463 54 45 76
0.930572 5.429062 -0.054521 108 103 114
-1.184529 0.289697 1.036317 58 50 77
-0.948531 5.457173 0.755891 116 111 126
0.239215 2.547872 0.269643 38 30 54
0.992280 3.206859 -0.240551 34 27 48
-0.966724 5.653593 0.259590 55 43 73
-1.099554 0.153682 0.459926 13 10 19
0.848591 4.151473 0.578251 82 74 97
-0.874003 0.765347 0.310398 73 60 95
2.541657 2.393014 0.059114 61 51 81
1.018184 4.975734 -0.070247 54 44 73
1.762593 3.557979 -0.284340 44 36 62
-0.556089 2.165768 -0.115767 5 3 11
-1.352879 1.806621 -0.286829 73 62 98
1.072816 0.361315 0.251630 51 43 70
2.105066 1.961878 0.038476 54 45 74
0.438146 2.776644 -0.591447 9 6 19
-1.153891 3.953893 -0.377917 5 3 12
0.386523 2.788905 -0.631719 13 9 23
-0.742633 0.914219 0.276367 72 58 93
0.717859 0.435661 -0.553036 92 78 118
0.618306 0.984269 0.257959 71 58 91
0.896373 0.422391 -0.187456 55 46 74
-0.957114 4.853943 -0.431111 79 64 99
-0.897004 4.071975 -0.983081 61 52 81
0.401404 -0.000016 0.235072 11 8 16
0.348991 -0.000015 1.195752 1 1 1
-1.570980 1.631924 0.234380 57 45 77
-2.157099 2.061600 -0.435080 21 16 36
0.879020 5.188531 -0.360481 63 51 78
-0.670919 0.267979 -1.042319 52 44 61
0.412109 0.222994 1.326096 66 60 71
-0.551589 5.650385 -0.150660 98 84 122
-0.370189 6.161727 0.269854 85 72 107
0.308532 6.031884 -0.212927 65 52 81
1.082716 4.381025 0.103075 60 50 80
-0.555399 4.094018 -1.263916 70 59 92
-0.319754 3.486909 -1.272853 56 46 75
-0.938949 -0.000016 0.363253 1 1 3
0.320790 -0.000015 -0.355867 24 20 37
1.093438 3.641647 -0.076121 56 47 76
0.460999 4.703005 -1.200453 87 71 109
0.399919 2.697507 -0.507942 4 2 8
-0.160762 5.159045 -1.079893 104 84 125
-0.131050 2.748638 0.409773 36 29 52
0.159858 2.787087 0.443218 35 29 50
0.202153 3.533227 -1.317756 50 42 67
0.781311 4.683079 0.554679 61 52 81
-0.643416 5.562075 -0.189090 84 76 94
-0.895046 5.764295 0.636345 63 50 81
1.112633 4.054737 -0.568075 40 33 56
-0.479816 0.416821 0.911247 41 29 54
0.284354 -0.000015 0.154849 0 0 0
-1.578570 1.755204 -0.222665 19 15 30
-0.995975 5.144672 -0.123600 74 62 97
-0.958413 4.735214 0.396855 52 43 72
1.708435 3.984430 -0.206098 91 81 110
1.107257 2.801645 0.151005 31 25 45
-0.450183 2.600768 0.306063 56 47 78
-1.153399 2.179588 0.060379 54 45 74
1.646061 4.713437 0.479873 23 15 31
-2.327134 2.860575 -0.230205 61 49 78
-0.638453 2.443931 -0.136801 14 10 26
2.378289 2.448320 0.162727 62 50 81
-0.140706 4.407544 0.907605 7 3 5
0.826481 -0.000015 0.404352 1 1 1
0.525723 2.466546 -0.240382 7 4 16
-0.077285 6.153312 0.552022 63 48 83
-0.914715 4.848627 0.690306 26 20 42
-0.774421 3.019288 -0.526873 10 6 19
0.838565 0.998817 -0.012177 66 55 88
0.734528 2.700739 -0.126393 11 7 25
1.208936 1.986975 -0.000852 46 38 66
-0.454146 1.845859 -0.038021 49 40 68
-1.645482 1.718920 0.309029 66 54 84
-0.281274 0.382501 0.920840 92 77 115
0.096472 6.034077 -0.326157 92 75 113
-0.428894 1.866580 0.020028 52 43 73
0.968715 4.075188 0.393695 65 55 86
-0.067419 6.264399 0.381460 88 71 110
-1.151052 4.499094 -0.297660 93 80 115
0.662223 -0.000016 -0.240257 0 0 0
-0.241392 -0.000014 0.264258 2 2 5
1.193009 5.198116 0.383874 33 25 43
-1.525605 3.995992 -0.104975 54 45 66
0.517087 2.945189 0.456115 50 41 68
-0.004583 6.101202 0.585739 77 61 97
-0.963671 3.219074 -0.338777 28 22 42
1.119011 3.081290 -0.106396 22 17 34
1.102577 0.201993 0.398787 32 26 45
1.202274 3.019402 -0.078953 105 101 116
0.620698 1.098805 -0.141728 77 65 99
1.161644 4.113561 -0.474035 23 18 35
-1.961938 2.207650 0.141737 56 50 65
1.412826 2.439388 -0.111668 72 60 95
0.453273 1.334001 0.078584 55 46 74
-0.971212 4.692169 0.432111 15 10 25
1.356405 4.036250 -0.332348 36 29 52
-0.807608 3.646820 -1.039208 45 38 62
-1.959247 3.439652 0.034697 67 57 89
0.973821 4.152781 -0.866187 63 53 84
0.491383 5.934056 0.221234 62 51 83
0.669224 2.506253 0.134933 58 48 80
-0.234527 -0.000013 -0.093956 22 17 34
-0.196876 3.163267 -1.137264 20 16 29
0.677265 0.414767 0.604697 77 65 102
-1.901042 3.669332 -0.037234 66 55 87
-0.442820 5.155829 0.742375 75 70 62
-0.283228 6.098462 0.471314 72 59 92
2.100117 2.762083 -0.286850 74 60 96
-1.198441 0.164814 0.834190 38 31 53
0.493671 -0.000010 -0.075063 1 1 1
-0.508026 0.604569 0.374992 77 64 103
0.573766 2.625826 0.268677 52 43 73
-1.983730 1.867132 -0.048308 23 18 36
0.770351 4.329957 0.708896 69 45 74
-1.775057 3.507128 -0.262927 27 22 42
0.506020 1.256784 -0.079386 64 54 85
-0.187952 -0.000011 -0.265184 0 0 0
0.819857 -0.000018 0.607105 0 0 0
-0.068035 4.456057 1.031988 65 49 67
-2.289776 3.035359 -0.159807 77 65 99
-0.841308 0.324732 -0.553219 86 78 101
-1.917570 2.232134 0.097109 61 50 80
-1.275423 4.250199 -0.410195 75 64 98
-0.695460 0.052086 -0.843108 5 3 7
-1.313261 1.727768 0.066927 25 19 42
-0.313325 -0.000021 0.141350 0 0 0
-0.861896 3.334109 -0.796993 5 3 12
0.838265 3.962512 -1.051002 61 51 81
0.097125 3.529136 0.912801 74 63 83
0.148212 2.930117 0.558928 42 34 56
-0.778611 1.138075 -0.000660 77 65 102
-1.186429 4.304715 -0.035893 66 56 88
-1.001180 4.609000 0.265103 25 20 38
0.710569 5.351017 -0.465930 97 82 121
-0.968662 5.552716 0.072301 101 83 122
-2.182328 2.031493 -0.406926 26 19 48
1.261640 4.107482 -0.388550 14 10 20
0.743709 5.294976 0.869359 60 48 72
-0.875603 0.244723 -0.484195 58 49 78
1.241778 2.399490 -0.105866 60 50 81
-0.959226 0.239292 1.297198 62 56 68
1.116831 0.373694 1.013438 47 36 62
0.607074 2.957787 0.405014 48 40 67
-1.092798 3.584996 -0.249915 47 39 65
0.225640 -0.000013 1.073188 1 1 1
-0.482588 0.304524 -0.402727 37 30 56
1.663531 3.947084 -0.118740 50 42 62
-0.319098 2.237645 0.036286 47 40 67
1.790767 1.415874 0.279262 60 53 68
-0.897425 5.234199 -0.273117 90 75 113
1.208936 1.986975 -0.000852 46 38 66
-0.249971 6.221443 0.352944 72 61 89
-0.127937 2.742889 0.404595 36 29 51
-0.598811 1.798223 -0.068532 72 61 96
-0.467961 -0.000017 -0.387914 0 0 0
-2.387084 2.526072 -0.232205 43 36 60
0.606115 1.947543 -0.068436 51 43 72
0.881422 0.425290 -0.226416 72 61 96
0.649908 -0.000014 -0.351929 10 8 13
-0.379818 5.803713 0.468472 56 44 72
0.988178 4.939919 -0.185958 55 45 69
-1.562005 3.992433 -0.353197 73 62 95
-1.015915 5.584110 0.166126 84 71 101
-1.517191 1.819090 0.117129 21 15 37
-0.161656 6.210540 -0.172385 104 89 126
-0.453940 1.455515 0.108849 60 50 82
0.963468 -0.000015 0.461877 1 1 1
-0.420700 5.804842 -0.171028 81 69 105
2.344653 2.235032 0.006234 46 35 64
-2.153663 2.502280 -0.364072 69 55 89
-0.226110 3.196409 -1.151631 26 21 37
-1.074226 5.339128 0.688140 67 55 88
1.135640 5.468938 0.269118 124 121 130
0.421156 6.043245 0.337705 63 52 84
0.828012 4.737613 -0.882289 86 70 107
-0.327834 3.107692 0.647691 40 32 52
-0.519306 2.246940 0.181904 64 55 82
0.508693 0.544703 0.422846 69 57 94
-0.743217 0.313971 -0.911325 47 42 55
-1.245256 2.753147 -0.118985 43 33 57
1.127786 5.179921 0.129273 54 50 62
0.584501 3.578392 -1.186168 45 38 63
-2.350092 2.305991 -0.488175 80 65 103
1.036365 5.598609 0.495310 82 69 104
-0.689354 2.932476 0.311446 55 46 76
2.133231 2.189446 -0.008938 47 38 69
-0.695317 4.871839 -0.962437 91 75 113
0.876022 0.213256 -0.457425 42 34 57
-0.863945 5.843354 0.714684 63 51 78
0.715360 2.918973 -0.484624 29 23 44
0.487754 0.192027 -0.731701 16 12 22
-0.420561 2.533524 -0.319786 6 4 12
0.632835 5.709518 0.204954 86 73 110
0.129942 6.159019 0.525101 82 66 103
0.531275 -0.000014 -0.336131 1 1 2
0.836080 4.282555 -1.029249 72 61 94
0.073976 3.355606 0.856460 59 49 70
0.741709 -0.000014 0.663203 0 0 0
0.384541 6.168740 0.188843 45 38 63
0.853121 3.048278 -0.360382 37 29 55
0.882146 -0.000016 -0.319631 1 1 1
0.143778 -0.000015 -0.042661 4 2 8
-0.247381 6.076277 -0.241439 91 76 114
-1.346273 1.743706 -0.291593 64 52 87
-1.568078 1.765820 0.078951 21 15 38
-1.148083 5.028676 0.395158 43 35 60
0.830666 0.821746 0.294698 67 54 88
0.509072 3.962210 -1.287974 70 59 91
0.065034 6.119775 0.572154 78 62 97
-0.407032 2.723375 0.379303 44 36 61
0.655982 1.396185 -0.070236 69 58 92
-0.200443 -0.000013 0.046804 7 6 10
0.991823 3.060485 0.121902 28 22 44
-0.333610 3.254600 -1.157437 29 24 41
-0.542347 -0.000012 0.440229 0 0 0
-0.875917 0.255534 -0.352438 57 47 75
-1.566320 2.378436 0.048075 83 71 110
0.506317 2.456136 0.231907 52 44 72
0.728007 3.119439 0.398975 54 45 75
-0.879279 3.756353 -0.985844 53 45 71
-0.706215 2.670943 -0.191169 16 12 30
-0.824066 5.667682 0.695127 33 24 46
-1.205125 0.251215 0.877971 61 51 81
0.962686 4.816621 -0.471890 77 63 99
-0.699120 5.448971 -0.328687 131 121 146
1.420664 2.376052 -0.121429 37 27 47
0.110035 5.514571 -0.782397 87 71 107
0.432469 0.861433 -0.097364 72 60 96
1.062200 4.543383 0.072458 45 38 62
-0.199442 -0.000012 0.702514 0 0 1
-0.146386 2.524398 -0.282953 17 13 30
0.081956 5.805735 -0.439027 92 77 115
-0.511794 -0.000016 0.254404 0 0 0
-0.910027 0.142603 1.139380 41 35 56
0.631857 3.320867 -1.039906 19 16 29
2.317194 2.980122 -0.136405 74 62 96
-1.354763 2.759294 -0.064597 82 70 107
-1.485983 1.871345 0.274733 36 28 52
0.106464 5.020439 -1.168197 95 77 116
-0.210987 0.219538 1.010020 60 49 81
0.540392 3.116476 0.551432 46 38 61
-1.128159 3.818117 -0.327161 51 43 70
0.645777 -0.000011 -0.825624 0 0 1
-0.231306 2.384403 -0.077788 17 13 30
0.500343 3.528712 -1.216164 50 42 67
0.579097 5.729269 0.291064 93 79 118
-1.673812 2.049946 0.000835 67 56 90
0.745763 1.086135 -0.099497 74 63 98
1.313224 2.464589 -0.127533 132 128 142
-1.322651 1.530067 0.122296 52 42 76
1.047814 4.599884 0.078512 62 53 83
-0.124975 5.389759 0.553937 59 46 76
1.193162 5.494034 0.658864 48 38 60
-0.849514 -0.000010 -0.011316 0 0 0
0.975101 5.172651 -0.154661 77 64 100
0.865868 3.237008 -0.687897 6 3 14
0.111774 6.323490 0.143786 100 86 125
-0.671480 4.394248 0.882509 79 76 64
0.466307 6.003270 0.035338 72 61 95
-1.054888 -0.000015 0.780144 0 0 0
-0.394736 2.257873 -0.114099 11 8 21
-0.453272 6.166589 0.249383 68 54 89
-0.313834 5.924931 0.555565 45 34 58
-0.803416 0.180948 1.032302 36 29 53
1.725459 1.995217 0.195876 63 52 86
1.929561 3.745938 -0.154121 78 66 102
-0.981175 4.849386 -0.309665 77 63 99
-1.510462 1.555388 -0.527807 47 37 57
-0.858632 0.242656 -0.726313 63 53 84
-0.687487 -0.000014 0.686136 1 1 1
0.497124 3.402930 -1.167528 34 28 47
-1.308262 1.783737 0.035884 27 20 46
-0.438346 -0.000013 0.540370 4 2 6
-1.268775 2.544287 0.252222 69 58 91
0.810885 3.320088 0.444793 57 48 78
-1.229678 1.889435 0.308820 64 53 85
-0.269992 -0.000010 -0.011316 36 28 50
0.813321 3.212566 -0.751790 6 4 13
-1.400859 4.245314 -0.330405 90 77 115
-0.933718 -0.000013 1.101897 0 0 0
-0.583648 4.167463 -1.245991 63 54 83
-1.316494 2.342026 -0.128152 73 62 94
0.498770 3.583129 -1.234458 47 39 64
-0.832072 0.809758 -0.142827 71 57 91
-0.791785 3.325388 0.472365 56 47 76
0.361712 4.117988 0.966531 62 37 64
0.499674 0.743277 0.298312 67 55 89
-0.523079 3.483912 -1.188061 45 38 61
0.798686 5.168548 -0.541013 86 71 107
-1.051581 4.642742 0.013874 74 62 97
-0.195275 2.473783 0.188088 43 34 62
1.087150 3.744102 0.005411 59 50 81
-0.196820 3.441419 0.874811 62 52 73
-0.038325 2.697099 0.354343 30 24 45
0.503071 5.823546 0.116403 62 52 84
0.348307 0.102999 1.134493 31 26 45
-0.106008 5.767101 0.646044 62 42 11
0.682960 1.723272 0.048277 64 54 89
0.685046 1.081334 0.224280 69 57 89
-0.913283 4.354478 0.446481 68 57 90
-0.414680 3.435072 -1.219500 45 38 61
-0.538482 4.458765 0.637285 18 11 18
0.797625 0.382878 0.673337 70 58 95
-0.554686 4.031392 -1.263764 68 57 89
0.530912 2.295530 0.187018 65 54 88
-0.521390 5.520053 0.717088 76 63 98
0.576317 -0.000013 0.570978 0 0 0
-0.606217 0.244657 -0.942208 5 3 9
0.538897 5.742539 0.190482 87 74 111
0.346574 0.411741 0.629086 99 84 124
-1.687603 4.718378 0.464311 52 39 66
0.749258 0.137832 -0.895565 25 20 35
1.135273 4.266684 0.035825 27 22 40
0.854752 0.221727 -0.776812 60 53 77
-0.718587 3.502553 -1.065330 46 38 64
0.198023 5.320565 0.577225 28 19 38
0.467371 -0.000016 -0.217637 1 1 1
1.363683 1.766896 0.112508 32 25 51
-1.931085 2.389183 0.041996 64 51 86
2.008496 2.316764 0.145264 65 52 86
-0.775216 5.725822 0.432006 99 83 123
-0.150774 5.577942 -0.693254 103 88 127
0.666204 -0.000019 -0.085612 1 1 1
-2.554746 2.387443 -0.046321 63 53 84
0.621466 5.619580 -0.078030 94 78 116
0.414943 5.434851 0.703147 68 56 89
0.239215 2.547872 0.269643 38 30 54
-1.024520 4.585899 -0.604753 80 66 101
-1.034391 5.141585 -0.047494 70 58 91
1.057035 5.071630 0.721966 62 47 75
1.500245 1.847397 -0.331874 85 75 109
-0.895773 4.815306 0.593108 26 20 42
-0.436132 0.993818 -0.021995 61 51 83
0.987261 -0.000019 0.402250 1 1 1
-0.841084 3.692819 0.568004 62 52 83
-0.063165 4.962770 0.818344 83 68 96
2.060926 1.847267 0.103908 21 16 30
1.320495 1.485006 0.136024 48 39 68
1.580860 1.533736 0.134046 43 34 65
-0.591761 2.863421 0.365341 52 43 71
-0.767607 -0.000020 -0.207811 0 0 0
-0.730338 1.243719 0.132298 60 51 81
0.336738 5.510430 0.549489 93 83 113
0.210903 -0.000013 0.848960 1 0 2
-1.368318 1.750636 0.252406 57 45 78
0.376519 2.459640 0.244550 50 41 69
2.306634 3.019326 -0.096174 71 61 93
-1.743980 3.807885 -0.337375 50 39 66
1.275248 5.522461 0.668651 53 45 63
0.246527 -0.000015 0.065088 1 1 4
0.790896 2.917618 0.106886 55 46 76
0.915660 4.946624 -0.470343 74 60 94
-0.201507 2.808279 -0.744924 15 11 25
0.289812 6.193680 -0.082004 91 77 115
0.540002 1.378002 0.195955 60 50 81
1.609423 1.995327 0.311324 67 56 88
0.926828 4.999475 -0.382631 70 57 90
-0.659972 1.014022 0.248617 70 58 91
0.362904 3.147984 -1.073691 6 4 10
1.074173 2.849485 -0.039983 11 6 22
-1.673871 1.529232 0.301686 35 26 48
-0.641312 4.357666 -1.191407 75 63 97
0.847865 3.158694 -0.610436 25 19 39
-0.289542 6.164924 -0.124608 98 84 124
0.034328 5.427939 -0.887908 101 83 123
0.982367 5.472288 0.014350 89 78 106
1.601986 1.419365 0.138786 38 30 59
1.323287 1.489976 0.153988 52 42 73
-0.306817 3.161681 -1.104077 16 13 24
0.697344 0.343597 -0.929183 62 52 74
2.445463 1.915337 -0.087445 20 15 30
-1.162519 4.244725 0.002967 79 71 96
-2.197854 2.208533 -0.595693 48 36 62
-0.918420 4.003987 -0.957402 62 53 82
-0.778926 2.919769 -0.332136 12 7 25
-0.367115 -0.000014 -0.539475 3 2 6
1.154002 4.481949 -0.169999 72 61 94
-0.851591 3.366336 0.421090 53 44 72
-1.318635 1.457170 0.162396 44 36 63
0.480427 5.707408 -0.184327 90 77 115
0.683796 0.572465 -0.319009 84 69 105
0.854504 4.472419 0.512105 58 48 78
0.577976 3.498615 -1.162324 29 23 38
-0.043384 5.606315 -0.680090 99 85 125
-1.331151 2.833261 0.093335 71 62 97
-0.335174 0.410545 0.839972 96 78 120
0.451522 5.028117 0.721860 78 54 66
0.591103 3.604549 0.762925 62 52 78
-0.311519 0.317737 0.412538 66 55 89
0.417015 2.630970 0.327580 47 39 66
0.111475 -0.000018 0.010762 0 0 0
-0.977224 3.550354 0.305651 60 50 80
-0.669285 0.132345 -0.925504 3 2 5
0.496817 0.272364 -0.754290 31 25 45
-1.955385 2.569167 -0.067331 57 47 80
-0.686581 3.482458 -1.082092 41 34 57
0.281038 5.400762 0.570653 63 52 85
0.849123 5.119276 0.820345 67 58 60
0.677047 3.989116 -1.183759 64 54 85
-1.013224 -0.000014 0.146751 1 1 2
0.228762 2.895500 -0.865366 14 10 23
-0.912643 0.481112 -0.133052 54 45 74
1.951036 2.940104 0.041953 64 52 86
0.815816 3.774963 0.606033 60 51 81
0.636351 4.367979 -1.192878 74 62 96
1.051857 0.381253 0.168837 50 41 67
1.128317 5.463333 0.520961 27 21 43
-0.022344 4.858599 0.875668 86 73 95
-0.335609 4.645242 0.880578 74 61 94
0.210522 4.273020 -1.376010 75 63 97
-1.168377 4.021560 -0.101390 27 21 41
0.549590 6.206222 0.228954 61 47 77
0.041547 -0.000010 0.702518 1 1 1
-1.038920 -0.000017 0.630890 4 3 5
-1.161789 2.297991 0.182514 60 49 84
1.067986 4.576434 -0.494926 50 41 61
0.470175 0.765140 0.261497 62 50 82
-0.290303 5.461884 0.547661 73 62 98
-0.666422 4.795400 -1.030069 89 73 111
-0.730647 -0.000019 -0.469963 0 0 0
1.127153 5.347689 0.127216 75 63 97
1.523588 4.136423 -0.324128 59 46 76
0.775808 3.075262 0.295799 52 43 71
0.952556 -0.000017 0.594918 1 1 1
0.623414 -0.000010 -0.328182 0 0 0
1.304152 1.442337 0.257193 52 42 70
0.962707 3.610516 -0.817797 20 16 29
0.633531 2.860773 -0.535216 16 12 27
-0.091636 4.529874 -1.348738 89 73 111
0.842872 0.819171 -0.126030 77 67 96
-1.210810 2.480432 0.240991 64 54 85
0.310904 4.411605 0.879733 63 56 49
2.308952 2.829410 -0.255993 61 48 77
0.555768 6.141707 0.298471 38 30 49
0.890651 4.370903 0.477995 66 56 86
-1.301962 4.199761 -0.398562 71 61 94
-0.192329 3.043186 0.639373 49 40 64
1.026801 3.702157 -0.727631 16 13 26
-0.439908 5.223471 0.750736 71 68 60
-0.668959 0.942007 0.273896 72 59 94
-0.477387 -0.000015 -0.264214 0 0 0
0.258878 0.297960 1.065836 62 52 84
0.306026 3.331911 0.797287 49 40 60
0.797934 -0.000017 -0.184266 6 5 9
0.287966 -0.000016 0.799519 1 1 3
0.500242 5.319651 -0.779546 95 79 118
-0.986028 0.595402 0.351613 73 62 95
-0.442204 3.568841 -1.255820 51 42 68
-1.133390 2.446087 0.012968 74 70 86
-1.144499 4.395196 -0.474692 81 69 104
-0.037687 4.468559 -1.365649 87 73 110
2.153462 2.313611 -0.065346 19 13 35
-0.948143 4.235178 -0.892252 81 73 99
-0.599971 1.758453 -0.069521 74 63 99
0.694547 3.093913 0.415877 55 46 75
0.002381 3.990377 -1.407499 77 66 100
-2.432159 2.758029 -0.098720 80 69 105
2.219631 2.907491 0.127286 73 61 94
-1.088794 4.566989 -0.436649 56 44 72
1.406619 1.850084 0.003811 21 15 36
0.097300 6.150885 0.550023 69 53 88
-0.989730 0.301965 1.249154 88 82 95
-1.035132 5.342962 0.734144 60 50 81
-0.501712 4.172557 -1.290395 72 62 95
2.588948 1.949857 0.112192 32 24 44
-0.976173 4.553482 0.324389 66 56 87
0.776515 4.022063 0.652293 57 48 76
-0.854221 0.094647 0.036009 8 8 9
1.920319 2.956671 -0.128996 53 45 75
-0.155134 2.686239 0.359276 36 29 52
0.602185 5.321194 -0.665171 64 52 77
-0.864402 5.522713 0.753741 84 72 102
-0.580683 4.079011 0.908288 34 20 39
-0.950113 5.192864 -0.192057 79 66 101
-1.060167 3.593027 -0.562968 8 6 18
-0.471212 3.854060 -1.299684 65 55 85
0.466538 -0.000016 -0.557737 1 1 1
-0.924216 0.263347 -0.156202 32 26 45
-0.885849 0.713492 -0.129013 73 60 95
0.631962 3.625818 0.741455 60 51 78
0.811268 4.424644 0.616121 64 53 85
-2.462549 2.199445 -0.114616 58 50 79
0.894417 5.000626 0.734334 78 71 70
1.013251 4.655118 0.241391 24 20 37
1.740828 1.970657 0.143598 69 56 91
0.610591 5.672317 0.063336 114 103 132
-1.814221 3.808244 -0.089738 71 61 93
1.593667 3.797322 -0.083953 22 17 40
-0.678749 4.992370 0.772306 56 50 47
0.932717 4.874799 -0.504107 79 64 100
0.075107 6.564325 0.354113 52 44 60
0.066491 5.298673 0.598046 78 65 101
-0.516705 0.179509 -0.814301 23 19 33
1.951631 3.691591 -0.247840 83 71 106
1.180145 4.335987 -0.459935 76 65 100
1.121422 4.586136 0.514632 16 11 29
-0.640729 4.322180 -1.197886 74 63 97
0.373469 2.095754 0.026293 44 35 62
-0.280542 6.247822 0.029086 106 96 127
-1.035944 4.928840 -0.000205 55 45 73
0.258982 3.377891 0.836030 57 48 70
-0.413889 0.716558 0.179004 67 55 91
-1.029132 0.417534 0.953257 59 47 71
0.837524 0.098830 -0.476964 27 23 38
0.872096 5.655992 0.706811 26 18 38
-1.072354 4.887279 0.284526 43 35 61
0.992333 5.786153 0.703506 42 35 52
0.807597 4.323584 0.664921 63 39 69
0.172730 3.233033 0.776029 49 39 60
-0.101021 4.523372 1.014559 90 71 94
0.674006 3.279898 -0.978767 5 3 11
1.413110 1.883199 -0.280403 82 70 107
-1.429890 2.376820 0.283583 69 58 91
-2.314702 2.819301 0.114874 71 58 92
-0.943232 5.636986 0.571100 93 76 115
-0.910588 3.019213 -0.088113 10 6 22
-0.127225 3.147106 0.724481 48 39 60
-1.002077 0.206134 1.334646 42 35 50
1.738038 1.413688 0.035013 25 21 37
2.477784 2.270872 0.149760 71 58 92
-0.962843 5.076983 -0.223723 73 60 95
-0.196328 -0.000012 0.440229 15 12 24
-0.461531 3.068780 0.563588 51 42 66
0.758882 4.272110 -1.109192 75 64 98
1.145164 3.909678 -0.354885 9 6 18
0.864459 3.075951 0.169131 52 43 72
-1.088085 0.294100 1.222088 67 62 72
2.490221 1.748770 0.048565 1 0 3
0.411248 2.090650 0.116237 53 45 72
0.027854 5.473528 -0.841373 100 83 122
1.042918 4.868962 0.060316 55 46 75
0.348317 -0.000013 0.094238 0 0 0
-1.830653 3.844751 -0.264653 85 75 113
0.965948 0.569395 -0.076320 53 44 72
-0.619443 1.478963 0.205046 69 60 90
-0.810109 -0.000019 -0.283270 5 4 7
1.247754 4.398498 -0.250640 82 70 107
-1.921639 2.990955 0.000314 62 51 86
0.526918 0.323720 1.102135 45 35 59
-0.551080 3.648605 -1.224972 52 44 70
0.914455 4.668264 -0.780176 76 65 89
-0.369512 6.433649 0.113005 36 28 46
-0.299652 4.688324 -1.265339 93 77 117
-0.325191 3.615428 0.877023 66 56 79
1.092829 4.285258 -0.603274 68 57 90
-0.818506 -0.000018 -0.682982 1 1 1
1.486448 3.947307 -0.331674 52 43 70
-1.569574 1.513341 -0.376343 9 7 15
0.908273 3.442642 -0.813652 3 1 7
0.991071 3.291286 -0.370331 46 38 63
-0.674050 5.394661 -0.463301 102 88 125
-1.107795 3.905591 -0.040082 67 59 84
0.281984 4.538162 -1.312651 75 61 95
0.378916 -0.000016 0.035821 1 1 1
0.700381 4.486959 0.769289 72 46 76
1.530244 2.416158 -0.010622 79 66 104
-0.885651 4.014793 0.523013 65 55 87
0.832186 5.274266 -0.360205 55 44 66
-2.066096 2.411633 0.165314 51 41 67
0.703428 5.552078 -0.098742 90 74 111
-1.205982 2.847111 -0.110405 72 61 97
-0.441292 0.437570 0.821401 71 55 91
0.069805 4.686019 0.941173 82 69 92
1.590633 3.868569 -0.338552 56 46 76
0.980697 4.874240 -0.277640 73 65 86
-0.902546 0.862762 0.093365 83 71 104
-2.214965 2.112015 -0.338958 25 18 45
1.458371 2.504036 -0.066388 74 61 98
-1.225793 2.820154 -0.112039 57 47 76
-0.359890 4.182236 0.514345 39 34 27
2.353140 2.420445 -0.308165 58 48 79
-2.559547 1.873469 0.065162 19 14 26
2.000108 3.488642 0.003294 69 57 91
-0.606668 -0.000012 0.967967 1 1 1
-0.579298 4.459802 -1.208474 81 68 104
2.237269 1.964066 -0.511929 13 10 19
0.353657 2.792659 -0.652406 14 10 24
-2.275838 2.419355 -0.445844 90 73 112
1.085830 4.343057 0.107684 30 24 42
0.217957 4.842941 0.838928 82 68 96
1.461792 2.537876 0.170002 72 63 92
1.776985 1.292778 0.236580 33 26 44
-2.467530 1.926229 -0.110411 22 17 33
1.063761 4.921309 0.552751 49 40 68
0.964574 3.174694 -0.260029 35 28 52
-0.743194 0.388823 0.626443 75 63 99
-0.887048 4.821178 -0.717556 54 41 69
0.366004 2.419621 -0.223441 8 5 16
-0.171430 5.866143 -0.368793 84 77 92
1.066617 -0.000014 0.793762 1 1 1
-1.046632 4.172815 0.213555 61 51 82
-0.700180 4.235500 -1.165247 73 62 95
2.015910 2.363655 -0.145220 62 49 83
0.229144 -0.000016 0.759194 20 16 30
0.726934 2.695695 0.097427 69 60 87
1.061124 0.378410 1.085542 51 40 67
-1.619196 1.534724 0.284583 57 47 80
0.093876 2.717613 -0.629972 17 13 28
0.936513 5.723687 0.743396 62 49 78
-1.320967 2.395492 0.285936 65 56 86
1.073632 5.245881 0.715336 45 36 60
0.300016 4.005317 1.018427 48 35 50
1.294483 4.351823 -0.304212 89 76 114
1.141713 2.351989 0.139093 53 45 72
0.716101 3.487293 0.640211 54 45 71
0.470781 1.506108 -0.017499 54 45 76
0.445716 1.080924 0.079107 67 55 90
1.041859 0.531446 0.287506 63 53 84
-1.750012 3.719103 -0.333611 55 44 68
-0.425223 0.442964 0.742603 83 70 103
-1.146707 -0.000017 0.707296 1 1 1
0.280503 2.704443 0.383853 40 33 57
-0.632749 5.661454 0.054848 104 87 128
-0.233876 2.395884 0.125075 45 37 65
-0.299485 4.817053 -1.219072 66 54 78
-0.902441 3.846158 -0.971107 44 36 58
0.638825 4.934423 -0.976472 90 73 112
-0.592651 1.649366 0.191045 65 57 84
-0.967772 -0.000016 1.044181 1 1 1
2.216417 1.991642 -0.638220 11 8 19
-1.047975 3.559041 0.131917 63 54 81
-0.836424 4.225588 -1.037960 70 59 91
-0.294896 2.628919 0.333755 40 33 57
-1.951576 2.577320 -0.029613 42 33 60
0.455778 0.946169 0.174459 67 55 91
1.968068 2.653283 -0.154640 59 48 83
0.624924 5.359786 -0.588472 72 58 91
-1.089055 3.239806 -0.123265 62 52 83
-0.219046 3.378972 -1.254629 43 35 58
1.952865 2.475159 -0.052368 72 57 96
0.410535 0.766747 0.134821 68 56 92
2.275231 2.605111 -0.345791 83 69 106
-0.312249 5.740201 -0.375994 95 83 121
-0.853785 4.510322 0.505180 61 50 80
1.118516 1.353794 0.249702 62 59 70
0.515690 2.084952 0.160077 89 83 103
1.542939 2.056989 -0.160097 67 56 89
-0.718013 3.939603 -1.153308 63 53 84
-1.053005 0.393815 0.178757 63 53 85
-1.666918 3.578147 -0.113500 17 11 33
-1.141855 5.035881 0.526865 46 38 63
