ply
format ascii 1.0
element vertex 1292
property float x
property float y
property float z
property uchar red
property uchar green
property uchar blue
end_header
2.458862 2.168800 0.154944 66 54 87
0.406135 3.230599 0.697121 47 38 60
-2.420684 1.895903 0.124724 38 30 49
0.659879 5.280253 -0.638713 78 69 89
-0.518575 1.216342 0.162565 65 56 86
-0.201064 4.751954 0.890013 81 67 94
-2.118092 3.239523 -0.281659 49 40 69
0.522303 3.666059 0.807044 63 53 80
-0.709649 2.575277 -0.063179 42 34 62
0.548843 2.676787 -0.416025 8 5 18
-0.413589 2.108038 -0.073195 25 19 40
1.306608 4.806439 0.512309 46 35 65
1.166915 1.862144 0.054370 64 53 86
0.830483 0.238922 1.082537 62 52 83
-0.574623 5.188749 -0.840268 102 83 124
1.042152 3.733465 -0.705285 17 13 27
-0.218244 0.257415 0.766624 64 53 87
-1.103784 3.398895 -0.011952 59 50 78
-1.980853 3.018262 -0.244547 58 48 79
-0.353611 4.358760 -1.328551 80 67 99
0.607199 1.233001 0.197124 66 57 86
-0.443293 5.140314 0.738032 62 59 54
-0.744450 4.650577 0.579219 65 55 87
-1.383975 2.423650 -0.121292 74 61 98
0.441769 5.065426 0.695647 65 56 53
0.413911 -0.000015 0.047362 0 0 0
-2.302670 2.487999 0.152789 62 51 82
-0.259811 -0.000014 0.676741 1 1 1
-1.490182 2.040690 0.309485 61 50 76
-0.138964 -0.000011 0.052616 0 0 0
0.683382 2.508347 -0.091537 45 37 65
0.204718 2.565540 0.270498 37 30 54
-1.031437 0.419331 0.886089 72 55 91
0.305662 5.158286 0.657146 70 57 92
2.165459 2.051685 -0.569216 21 16 36
0.843438 0.372059 -0.372179 69 58 91
-0.251638 6.385237 0.162575 16 12 22
-0.965095 5.047737 -0.228728 74 60 95
-0.824160 4.373693 -1.023883 77 64 99
-0.824355 -0.000015 -0.453176 0 0 1
0.856971 -0.000017 1.169889 4 3 6
-0.447304 1.652264 0.097657 66 57 85
-0.388461 4.080584 1.000282 74 47 79
-2.223486 2.682505 0.155136 81 69 100
0.796371 -0.000013 -0.657388 1 1 1
-0.217734 -0.000016 -0.217289 0 0 0
0.471521 4.263263 -1.296619 72 62 95
0.737738 -0.000011 0.702518 1 1 1
1.455718 2.273378 -0.128526 73 60 95
-0.397498 0.174688 0.154833 33 27 50
-1.156982 0.095120 1.013334 31 25 43
0.988093 3.489992 -0.684659 8 5 16
2.198546 2.472502 0.144215 69 58 89
-0.452549 1.402724 0.093325 59 49 83
2.054256 2.933053 0.117044 77 68 94
-0.876452 -0.000017 -0.061491 1 1 1
0.496639 5.789192 0.290780 61 51 83
0.425603 5.432811 -0.712979 95 79 117
-0.586670 5.601732 -0.205060 102 90 122
1.065823 4.917549 0.525300 45 36 63
-1.091478 -0.000015 1.110746 1 1 1
-0.547894 -0.000017 0.079589 1 1 1
-1.185520 2.421569 -0.070190 54 45 75
-1.884256 3.214739 -0.005822 24 18 40
0.079191 4.271832 -1.393870 79 68 102
0.323715 5.182044 0.665735 65 52 86
1.034236 2.882532 0.070902 16 10 34
0.195969 5.025571 -1.149583 96 77 117
-1.297493 2.554310 0.253754 67 56 88
-0.333708 -0.000016 0.488970 0 0 0
-0.394534 2.298221 0.181937 53 45 72
1.184288 2.618771 0.210435 63 54 80
-2.246675 2.011189 -0.706486 100 98 104
0.349070 6.328943 0.133636 29 21 39
0.726941 0.214702 0.654813 2 0 6
0.893397 3.823446 -0.979497 49 38 63
-0.237187 4.738707 -1.265141 76 62 93
-0.488007 3.080601 -0.951919 8 5 14
-0.108258 4.054781 -1.403723 74 63 96
-0.699699 -0.000010 -0.764076 1 1 1
-1.072702 4.622541 -0.083067 78 66 101
0.204516 -0.000012 0.089591 1 1 1
-0.443315 5.555150 -0.527580 88 77 100
-2.355035 2.671003 0.136942 51 44 63
-0.690929 -0.000018 1.055003 0 0 0
-0.478941 1.888519 -0.071996 58 48 78
-1.001911 4.710975 -0.506922 85 68 106
0.300609 6.172006 -0.099802 92 78 115
-2.460807 2.700801 -0.022054 74 63 98
-1.097853 4.398453 0.062718 33 28 47
-1.608819 1.433130 0.256812 50 41 68
1.114525 5.307399 0.657423 63 53 83
-1.118404 5.044757 0.634985 54 45 73
-1.517388 1.935427 -0.235481 83 71 109
-0.849320 0.298289 1.079439 61 50 82
1.740744 1.795746 0.049623 55 46 75
-0.128065 3.769817 0.937267 73 60 83
-1.245126 1.518590 0.019677 66 56 90
-0.202401 4.855850 0.838291 82 68 95
-0.868627 5.481808 0.780057 77 64 99
-0.659955 3.627916 -1.153082 54 45 73
0.604314 2.572773 -0.265393 8 5 18
1.140379 4.403823 -0.476734 75 63 98
-0.812964 4.106607 -1.073827 67 57 88
0.339300 3.386709 0.812787 56 46 69
1.150055 0.368628 0.814857 109 103 120
1.168143 1.790596 0.044078 65 54 87
0.917830 4.557297 0.422576 29 24 42
-0.071705 5.796444 0.663937 31 24 12
-0.450016 1.694734 0.001473 56 46 78
-1.486477 4.182692 -0.186502 69 58 92
2.076389 1.986310 0.129477 42 33 52
-1.035205 0.465272 0.142159 54 45 72
-0.052111 6.258749 0.394441 97 84 114
-0.330041 -0.000020 0.992133 1 1 2
-0.708681 4.646766 -1.056923 58 45 74
-0.502500 2.551134 -0.311878 7 4 16
0.534294 0.438395 0.637795 80 64 103
0.620688 0.263808 -0.869717 14 12 17
0.890111 -0.000013 0.111320 0 0 0
2.517283 1.823303 0.123442 33 26 39
1.357952 4.592046 0.517450 49 40 65
-0.841046 0.086316 0.972171 17 13 26
0.086642 5.131888 0.704560 79 65 99
1.294483 4.351823 -0.304212 89 76 114
-1.118727 0.318129 0.450303 65 55 86
1.350285 2.828966 0.006118 92 82 111
0.328754 3.558655 0.866094 71 60 84
-1.300120 1.393879 0.181565 37 30 53
0.800197 3.604819 0.596431 59 50 79
-2.100228 2.606387 -0.299871 65 53 86
0.679558 0.862706 0.304033 76 62 98
0.043166 4.486953 -1.361537 89 74 111
0.938163 5.457102 0.763038 74 62 96
0.894963 -0.000010 0.440232 1 1 1
0.512128 3.287231 0.678145 47 38 60
2.463255 1.856568 0.053217 15 10 23
-2.191184 2.179274 -0.613331 41 29 55
0.904124 4.986613 -0.467503 74 60 95
0.692883 4.567019 0.665625 70 58 91
0.011122 2.721555 -0.648927 17 13 29
-0.554259 1.970912 0.148280 75 66 94
-1.435440 2.675241 0.043794 116 111 129
-0.107159 6.223655 -0.179705 97 81 121
0.145055 -0.000015 0.817663 2 1 5
-0.662314 1.804023 0.006038 81 78 96
-0.178375 2.476909 -0.220664 16 12 28
-0.983283 0.295592 1.255092 64 56 73
1.604322 1.660490 0.080352 43 35 63
1.727926 3.505621 -0.071695 15 10 28
1.045515 3.500865 -0.498538 17 13 29
-0.749403 5.092747 -0.708529 100 82 122
-0.620857 4.192342 -1.222974 64 52 83
1.264476 5.468963 0.660620 74 70 78
0.300004 6.244296 0.195230 54 44 73
1.575081 1.710592 -0.218245 30 23 47
-0.548178 1.311203 -0.096005 72 61 94
2.498883 1.857249 0.051855 6 4 11
1.994937 3.399604 0.037790 68 57 90
-0.811973 5.697540 0.217704 110 98 129
-1.290642 2.293646 0.283640 36 28 47
-0.505534 5.829952 0.178309 71 60 95
-0.859219 0.333358 -0.395649 76 65 98
1.013851 5.517141 0.078069 95 78 117
1.283421 4.287596 -0.111767 63 53 84
-1.176388 -0.000014 0.902443 2 1 3
-0.583867 5.584717 -0.259986 101 86 126
0.328145 -0.000016 0.781996 1 1 1
-0.964286 5.710498 0.681908 33 27 42
1.140432 5.217186 0.638254 63 53 83
-0.604724 0.542894 -0.334527 87 71 109
0.776720 3.696419 -1.081399 53 45 72
2.084749 1.910899 0.028184 48 40 66
-2.318183 2.787735 -0.260611 57 43 73
-0.794535 2.965810 -0.373013 12 8 24
1.041091 0.238113 0.181797 32 27 45
1.047805 3.418750 -0.309218 50 43 70
0.544234 2.939126 0.436585 49 41 68
0.510267 0.435482 0.697828 92 75 116
0.830875 0.388245 0.737582 83 70 109
-0.867987 3.656706 0.528412 60 50 80
0.461680 2.795512 -0.603173 9 6 19
-0.806684 2.894655 -0.002770 45 37 64
0.509565 3.098880 0.558208 50 41 65
-0.840474 4.150007 -1.042576 68 58 90
-0.676284 5.350068 -0.526702 101 86 126
-1.355059 1.667848 -0.201205 43 35 64
-0.496077 -0.000014 1.065606 1 1 1
-0.066486 6.218604 0.452939 83 66 104
-1.006562 2.949329 0.077578 12 8 28
-2.159640 2.569282 -0.349370 80 65 102
-1.023758 3.684447 -0.727357 31 25 43
-0.577741 2.647315 0.273957 51 43 71
1.218852 1.651131 0.319898 71 60 87
-0.829232 4.804099 -0.838383 91 75 113
-2.529079 2.065942 0.138628 52 43 66
-0.876971 3.860459 0.539399 64 54 84
-0.373570 -0.000015 0.479698 1 1 1
-0.297810 4.031623 -1.370291 76 64 98
-1.345313 1.613095 -0.373908 23 17 38
0.213328 -0.000015 -0.163125 6 5 8
0.270979 -0.000016 0.862144 18 15 28
-1.264916 4.360463 -0.174309 83 71 106
-1.026139 4.551219 0.188483 53 44 72
0.905665 0.263526 -0.212320 37 31 51
-1.310484 2.089741 -0.145623 59 50 81
1.175505 2.328289 -0.035273 52 43 72
1.148758 1.906109 0.138513 66 55 89
-0.884576 4.923728 -0.600069 79 64 102
0.082994 3.794069 0.943546 110 104 116
-0.876664 3.107808 -0.419138 23 17 37
-0.331140 3.711129 0.883815 66 55 79
1.111369 0.267203 1.112287 52 43 70
1.989998 2.176055 -0.119808 72 60 95
1.358722 1.909279 -0.211381 77 67 96
-0.636883 2.862059 -0.532844 8 5 18
1.041320 4.854612 0.377665 47 38 66
0.240289 4.101322 0.959695 38 24 42
2.043458 3.031455 0.105147 65 54 87
-1.140940 2.511086 -0.028110 45 35 65
-0.930876 4.200323 -0.924260 70 59 91
0.621676 1.707399 0.170029 66 55 88
-0.833678 5.069770 -0.567139 64 50 81
-2.344424 2.406852 -0.217220 17 13 31
1.404694 4.080838 -0.358547 60 50 80
0.526702 3.779454 0.814485 65 54 82
-0.267114 4.822799 0.828355 81 67 99
2.359423 2.360840 -0.124587 19 15 34
-0.038811 3.947248 -1.406023 66 57 87
-1.198553 1.274787 0.210013 5 3 11
-0.487418 0.855344 0.243849 70 57 93
-0.870637 4.096000 0.542470 73 65 92
-2.227445 3.088777 0.043009 65 56 82
-1.593420 4.100781 -0.274603 72 60 94
2.571257 2.325608 0.010374 60 51 81
0.971129 4.839783 -0.386027 76 62 97
-0.982245 3.577571 0.305941 60 50 81
-0.464764 1.178994 -0.026310 66 55 89
-0.699197 2.578554 0.105539 54 43 76
0.713189 3.517011 -1.075832 34 27 47
-0.593599 0.498629 0.502972 78 66 101
-0.978492 5.768821 0.672415 112 109 115
-1.146909 5.399428 0.538247 14 11 22
0.563073 0.102100 1.065410 27 22 39
-1.501978 1.376583 -0.548203 9 6 13
-0.450022 5.682917 -0.298242 94 82 119
0.262058 4.554063 0.944896 79 60 93
-1.064870 4.067907 -0.697849 60 50 80
2.255472 2.200376 -0.291180 33 26 53
-0.191878 6.008943 0.607603 60 45 74
-1.639890 3.811431 -0.065847 50 44 65
-0.531246 3.356781 0.706911 53 44 68
0.552644 2.220667 -0.127196 5 3 11
0.142319 5.794024 -0.431898 95 80 118
-0.325402 -0.000016 -0.525391 0 0 0
0.645309 -0.000011 -0.886997 2 1 3
1.466720 4.176198 -0.165032 60 50 80
1.445979 1.807557 -0.362625 84 72 109
0.508227 5.797703 0.162310 69 57 93
1.899515 3.143464 -0.186594 37 28 50
-1.006900 0.093847 0.370957 3 3 5
-0.339049 -0.000017 -0.024596 5 4 6
-1.161296 4.445395 -0.115409 84 74 105
1.709357 3.658608 -0.033401 23 17 38
1.148490 4.128299 0.008181 58 49 79
1.719520 3.931417 -0.139728 50 43 59
0.393480 5.648710 -0.435151 69 57 88
-1.796710 1.624752 0.129521 91 82 100
0.139911 5.793410 -0.433471 86 72 110
1.079198 5.508509 0.163781 50 40 63
0.169579 2.677569 -0.539358 16 12 27
0.064488 6.344611 0.326835 34 24 48
-0.921382 -0.000017 -0.020499 0 0 0
2.549191 1.874807 -0.033112 21 18 31
-0.479364 4.301614 0.832319 43 39 28
-1.079583 4.955087 0.157366 40 33 57
1.647535 1.327972 0.278266 25 19 33
-0.824433 5.384018 -0.206423 100 83 122
-0.995482 0.439888 0.798896 97 84 123
1.776710 4.655203 0.406922 25 16 36
-0.468990 4.748865 -1.179671 88 71 109
-0.406250 5.360550 -0.813913 100 82 122
-1.695387 1.576484 0.019625 51 41 72
-0.986579 5.505512 0.041751 97 80 118
1.262178 1.872083 0.318291 62 53 80
0.147606 2.705862 -0.595027 16 12 27
0.455660 0.562153 0.362229 73 61 97
1.131792 3.201900 -0.078269 33 27 50
1.919444 1.824172 0.085543 14 9 24
-0.669114 4.479493 0.906453 97 94 79
0.553648 1.442766 0.208707 64 54 84
0.478419 0.217548 -0.304729 49 41 71
-1.967687 3.572371 -0.021670 65 55 87
0.753738 2.742876 0.011380 53 44 75
-2.236224 2.261544 -0.572890 70 57 89
-1.123305 5.189946 0.115717 38 29 49
2.003789 2.161039 0.158711 50 38 65
0.458298 -0.000020 0.369201 5 3 9
-1.676263 1.613354 0.310457 51 40 65
1.004604 3.903368 0.312348 62 52 83
0.335051 4.158996 -1.356392 76 65 99
0.879898 4.066381 0.529700 63 53 84
-0.814751 0.350493 0.871819 78 66 104
2.144449 2.675711 0.144254 47 36 61
0.008786 5.684968 -0.588863 87 80 95
-0.627777 1.366556 -0.090641 72 61 94
1.264943 1.681182 0.316040 69 60 85
-0.001416 5.637818 -0.645397 97 83 118
-0.828006 4.183376 -1.052342 72 63 91
0.384180 -0.000016 -0.510188 1 1 1
0.826685 5.347789 -0.258878 93 78 115
1.029369 5.620949 0.394342 92 77 116
0.970389 3.574165 0.329174 61 51 82
0.218885 4.125921 0.540294 1 1 1
-0.441120 6.070937 0.042287 85 73 109
0.372835 3.663625 0.865635 68 57 81
0.237089 6.168149 -0.173003 93 78 117
1.055550 3.699164 0.128503 62 52 83
-0.857671 3.120858 -0.510707 16 11 28
0.654312 0.671463 0.385365 76 62 98
-1.732618 1.401655 0.041625 21 16 32
0.603638 0.580641 -0.313885 88 72 111
-0.226105 3.335359 -1.232223 40 33 55
1.165273 2.231933 -0.001907 53 43 74
-2.414870 2.151599 -0.098871 60 51 81
-0.578223 0.156556 1.084752 52 44 71
-1.388665 1.753887 -0.094748 45 36 67
-0.078583 4.831594 -1.256649 96 78 118
-0.032273 4.062863 1.028414 75 49 76
1.179638 2.579340 -0.084197 58 49 79
-0.489904 4.833165 -1.133828 93 75 114
-1.268666 2.002070 -0.068803 33 25 51
0.640904 0.211914 0.998645 49 40 75
-0.591303 0.346772 -0.865063 22 16 30
-1.056051 0.226864 0.238615 26 22 38
1.565878 3.791645 -0.105284 16 10 32
-1.588950 1.680680 0.094006 30 23 48
-2.429272 2.239114 0.151917 67 54 87
1.786672 1.754922 0.191447 59 49 78
-0.712456 5.039699 -0.817360 98 80 120
-0.921510 0.134338 0.062492 4 3 6
-0.078520 6.552946 0.356721 81 75 87
1.025110 3.307462 -0.264295 43 35 62
0.650857 1.703666 0.146565 63 53 86
0.444285 5.571805 0.609448 68 56 91
-0.120879 4.992423 0.787584 82 67 97
0.945901 4.883374 -0.437004 74 60 95
-1.014801 4.606859 0.223274 43 36 61
-0.226783 -0.000014 0.456988 25 20 37
0.784381 4.249827 0.722859 60 38 64
2.010803 1.795297 0.048728 11 9 17
-2.528215 2.131407 -0.123539 75 66 98
0.893578 -0.000015 -0.020548 0 0 0
0.229007 3.288141 -1.206953 33 27 46
-0.474583 3.601888 0.818522 60 50 74
-0.445849 4.648083 -1.225181 86 71 108
-0.028462 4.872178 -1.243521 96 77 118
0.455535 -0.000015 -0.264671 20 16 31
-0.473413 5.311582 -0.812218 100 83 123
1.691726 1.472138 0.314552 54 48 62
-0.077983 5.184664 0.669651 76 61 96
-0.638769 5.150607 -0.805913 101 83 124
-1.021661 4.508163 -0.667021 84 68 105
-0.553865 2.419489 -0.199305 8 5 18
0.304813 0.391096 0.916531 65 51 83
-0.662994 2.444764 0.117548 56 47 78
-0.035072 3.975324 -1.406575 76 65 99
0.522940 1.674958 0.178380 66 56 88
2.383907 2.844129 0.011950 69 59 87
0.465871 3.387038 -1.174977 33 27 46
0.418160 -0.000015 -0.187218 22 18 34
-0.105702 4.696642 -1.301187 92 75 114
0.209946 -0.000015 0.415950 3 2 5
2.183461 2.754271 0.151554 63 50 81
0.485783 5.755388 0.370130 65 55 86
-0.701110 1.308194 -0.050597 70 60 91
0.247045 -0.000015 0.020413 52 46 61
0.304110 3.996024 -1.368037 67 57 88
0.917548 3.888858 0.480459 61 51 81
-0.032872 6.455730 0.304032 82 76 91
1.846072 3.555044 -0.311066 64 53 87
0.980685 5.631769 0.529001 84 68 105
-1.561149 2.382245 0.147714 80 68 105
-1.172489 5.151217 0.281099 40 33 57
-0.619316 -0.000011 -0.886997 2 2 4
-0.092098 3.246332 0.793135 57 47 69
0.567869 4.962531 -1.016309 89 73 111
-0.938835 0.777264 0.060404 80 68 104
1.040710 0.180885 1.338759 37 28 47
-0.019546 4.785979 -1.276903 94 75 115
-0.360784 5.526764 -0.643003 98 83 122
0.738557 -0.000012 0.796983 0 0 0
-1.895103 3.307801 0.026963 40 32 58
-0.341234 4.519485 -1.300268 57 44 73
-1.095367 3.306853 0.091998 63 53 84
-0.669971 2.815956 -0.430835 9 6 20
-1.780879 1.764203 0.145895 57 47 76
-0.215889 3.927253 -1.385195 65 55 85
1.316367 2.490584 -0.129063 59 47 76
0.845616 5.360006 -0.205455 92 76 114
-0.092688 2.937445 -0.956061 13 10 21
0.927843 5.484954 -0.018143 84 67 103
0.345888 -0.000015 0.550141 13 11 20
0.416425 0.505777 0.397360 86 75 110
2.196057 2.680585 0.153768 66 53 86
-0.583964 0.817455 -0.214980 86 69 108
1.952772 2.546780 -0.025123 67 57 91
0.230732 5.820272 0.590890 73 69 67
1.147568 0.306179 0.567334 67 57 89
1.190980 2.079708 -0.012291 48 39 68
-1.247759 1.911143 -0.007802 45 36 65
0.995230 5.147490 -0.123623 72 60 93
1.478113 4.548398 0.487694 47 36 62
-1.005876 4.317861 -0.777506 99 96 103
-0.995698 3.604615 -0.750905 25 20 37
0.876333 3.283858 0.337814 56 46 76
0.379457 2.570637 -0.364306 9 6 19
0.608416 -0.000015 0.015097 0 0 0
-1.912672 2.962347 -0.059694 50 40 73
-0.599241 5.537608 -0.333774 101 88 123
0.340142 6.192636 0.001216 94 83 116
-1.320459 5.546730 0.598893 67 56 81
0.363075 3.949871 -1.349116 67 57 89
0.133211 4.768990 0.900208 84 71 94
0.847921 3.001850 -0.258980 14 9 29
-0.876006 -0.000017 1.066885 0 0 1
1.051120 3.856128 -0.717111 52 43 70
1.253157 1.351130 0.236483 23 17 33
-0.868994 5.604579 0.673891 72 58 92
1.898903 3.015514 -0.090803 48 39 69
0.503885 3.425539 -1.173831 44 36 60
1.182031 0.332785 0.911881 73 61 95
-0.482882 2.700986 0.344521 49 41 68
0.703367 4.725637 -1.029488 73 60 94
1.089901 4.933281 0.466181 46 38 64
-0.646496 4.418410 0.907725 86 83 69
-0.623542 -0.000018 -0.885067 0 0 0
-0.192601 2.976812 0.589346 42 34 55
-0.488172 1.527702 0.168835 62 53 83
-0.425496 0.443449 0.683814 79 65 101
1.134662 0.068372 0.895565 16 13 24
0.459572 1.504973 0.133616 59 51 79
0.196013 5.180433 -1.057734 91 72 110
1.328628 2.001233 0.305804 70 59 88
0.997262 4.756807 -0.416948 122 116 132
-1.132257 -0.000011 0.570981 2 1 4
0.252796 4.592210 -1.306184 91 75 114
-1.493088 2.376389 0.252737 74 64 95
-2.118551 2.041395 0.061751 56 47 78
0.865889 0.585498 -0.183431 69 59 88
-0.419311 2.503322 0.265211 49 40 67
1.743048 3.525691 -0.249376 24 18 40
2.201901 2.053726 -0.682354 42 35 49
0.008755 4.864966 -1.247137 95 77 116
-1.343838 2.528333 0.255007 68 57 90
-2.599138 2.010467 -0.029394 54 45 72
0.215716 0.269759 0.994510 69 57 92
2.120388 3.233966 0.049639 66 56 87
0.889687 0.513376 -0.164795 53 45 73
0.473961 0.201131 -0.515416 34 28 48
-0.664985 2.416902 -0.071159 35 28 53
-0.008465 3.014811 -1.043883 11 8 15
-0.812251 4.498848 -1.003434 94 84 113
1.266413 2.259728 -0.116387 67 56 90
1.309477 1.429588 0.148218 51 42 71
-0.581501 -0.000015 1.173151 6 4 9
0.458238 -0.000014 0.655883 1 1 1
0.273718 -0.000018 0.012673 0 0 0
1.730624 3.903640 -0.119574 52 45 60
1.336872 1.793678 0.293743 56 45 72
-0.094439 2.795580 0.450407 35 29 49
-0.118668 5.064946 -1.142814 101 81 123
0.062075 4.654138 0.954306 83 69 94
-2.375160 2.875048 -0.020574 55 46 67
0.893941 3.133266 -0.418568 39 32 59
0.317633 2.921830 -0.859768 12 9 21
-0.620627 5.305679 -0.660744 65 53 78
-0.894728 4.847418 -0.666913 87 70 108
-1.294233 4.339985 -0.181991 82 70 106
1.168131 0.345168 0.988420 79 67 103
-0.491174 1.820725 0.136830 66 58 86
-0.913645 0.813694 -0.008118 74 63 99
-0.846710 0.296903 -0.729242 72 61 93
-1.692533 1.912020 0.007133 62 52 83
0.829142 4.440834 -1.001356 74 63 94
1.088179 3.566415 -0.277066 53 44 71
0.210087 4.523976 0.996307 80 53 85
-0.093130 5.971501 -0.350744 92 75 114
-0.153098 3.549939 -1.330787 51 43 69
0.566552 2.372673 0.186083 65 59 81
0.860697 0.590467 -0.186212 72 60 95
-0.963770 3.252797 0.223925 52 43 71
-0.580723 5.341192 -0.667741 81 70 95
0.920255 -0.000018 0.594922 0 0 0
-0.821703 3.013270 -0.388299 21 15 34
1.047288 2.884325 -0.032740 13 8 29
1.457004 1.957059 -0.247952 79 66 104
0.439781 3.708845 0.845099 72 62 87
0.572514 2.097922 0.150286 81 75 97
-0.426876 2.072179 0.125737 60 52 76
0.470387 3.601393 -1.253074 48 40 65
-2.291073 3.052302 -0.120675 92 83 113
-1.136971 4.081255 -0.003819 56 47 77
-0.363363 4.007073 0.993205 34 21 38
-0.217791 5.264174 0.600447 70 57 93
0.112786 4.281946 -1.389775 78 67 101
0.934359 0.238729 1.134253 50 41 66
-0.720924 3.305025 0.538567 56 47 75
2.113824 2.609984 -0.313325 68 56 91
2.308952 2.829410 -0.255993 61 48 77
0.570939 1.814897 0.157793 68 57 89
-2.082916 2.709614 0.127041 55 48 64
0.496758 0.281533 -0.601915 54 44 72
0.402084 2.185149 -0.090567 8 5 18
0.278134 2.744544 -0.611905 16 11 27
0.378649 6.178032 0.166527 71 60 93
-0.548669 5.206958 -0.848704 89 74 112
0.469413 3.820157 0.840543 60 50 76
-0.715542 3.122843 -0.787169 5 3 12
-0.830022 0.311487 -0.772175 68 57 90
1.568846 2.032740 -0.133286 68 56 93
1.050174 4.681323 -0.067930 71 59 94
-0.442785 1.078671 0.069336 57 48 80
0.931397 5.258539 -0.174729 84 69 106
0.334517 4.122692 -1.358101 75 64 98
-0.267609 4.275095 -1.363597 79 67 102
-0.377161 4.072577 1.004319 69 45 74
-1.043989 -0.000015 0.889353 0 0 0
-0.536041 2.821261 0.377817 51 42 70
-1.660660 2.164499 0.184278 71 59 92
1.206364 0.181399 0.902379 46 39 61
0.142268 5.608291 -0.658855 99 84 122
-1.141663 -0.000020 0.786210 0 0 0
-0.455789 1.430572 0.025211 55 45 77
-1.207906 5.534999 0.592971 66 52 83
1.172554 5.261757 0.546930 59 49 78
1.702439 2.036523 0.216430 47 37 64
1.961149 3.283890 0.056816 53 45 61
2.002927 3.482944 -0.281446 74 63 97
1.412261 2.704941 0.075122 78 67 99
-0.499821 5.795934 0.052371 78 64 102
0.400802 -0.000016 0.732432 1 1 1
1.622503 3.925291 -0.095419 52 43 72
0.116807 3.476310 -1.311410 45 38 62
-0.729088 -0.000015 0.448480 0 0 0
0.416629 3.590338 -1.272270 47 39 64
1.562325 4.768632 0.474816 51 38 71
-0.556495 1.903680 -0.085567 68 57 91
-0.658722 0.441868 -0.585198 88 76 112
-1.325597 2.724009 -0.101600 71 60 94
-0.864375 0.161322 -0.257289 32 27 46
0.992107 4.106440 -0.842014 63 53 83
-0.411556 5.440631 0.696012 65 55 87
-0.754947 4.497535 -1.063733 79 67 102
0.570917 3.035195 -0.840395 6 3 12
1.804239 1.583334 0.151191 59 49 78
2.216814 3.232939 -0.070285 66 55 86
2.179344 3.324265 -0.149988 75 64 98
1.769312 1.700799 0.253403 66 54 87
-2.277632 2.778661 0.142480 70 56 91
-0.066952 4.924073 0.839066 85 71 96
-0.797928 5.725468 0.388559 108 95 129
-1.519323 2.035208 0.309476 54 45 67
2.532283 2.095761 0.135002 63 53 83
-1.073234 0.438208 0.469011 80 70 103
0.817310 3.536121 -0.988510 40 33 55
-0.425056 4.572215 -1.256398 85 71 108
0.819040 4.094144 0.611819 61 51 80
-1.442374 2.059125 -0.205292 96 91 105
1.156640 5.396006 0.238718 73 61 95
0.436386 4.487376 -1.273023 69 58 88
0.911578 3.560207 0.433577 57 48 77
1.117474 3.895944 -0.088393 74 66 90
0.960104 4.325435 0.378438 64 54 85
-0.068263 3.280654 -1.228488 44 37 61
-1.075620 4.911726 0.210757 37 31 53
-1.640046 2.218727 0.040926 81 68 108
-1.194288 5.240363 0.395275 57 53 63
-0.149314 5.394833 -0.901884 108 94 128
-0.696796 5.726240 0.461432 97 81 121
0.363190 2.672429 -0.486355 12 9 22
1.787369 1.363630 0.166912 40 33 56
0.956076 -0.000016 0.886647 0 0 0
0.148639 3.503120 -1.316394 49 41 67
1.459621 2.594090 0.114162 70 60 94
-1.118711 5.163310 0.113668 48 44 54
-0.968248 3.338522 -0.565933 30 24 45
-0.209361 6.239520 0.355750 82 68 104
-0.477250 0.184103 -0.136204 24 19 35
2.542251 2.440033 -0.060280 64 54 85
-0.904752 4.738435 -0.749130 55 44 67
0.237966 4.324583 -1.364234 74 62 96
0.509714 1.542055 -0.064449 61 51 83
-0.245782 0.111744 0.821963 38 31 55
0.589565 2.616467 0.255098 53 44 73
0.230162 6.179402 -0.166675 97 81 121
1.336699 1.689922 0.117420 20 15 35
2.249653 3.016668 -0.235540 71 59 92
-0.895206 3.214336 -0.588700 20 15 31
-0.969551 4.237604 -0.859591 56 44 72
-0.773451 3.049831 -0.583838 7 4 15
-0.268437 -0.000018 1.164661 20 16 29
1.926754 3.218245 0.040094 55 45 70
-1.061338 3.444768 -0.275377 43 35 61
-0.429772 3.876955 -1.319979 62 52 81
0.713013 -0.000015 0.271322 0 0 0
-0.929088 4.505155 0.411002 45 37 61
-1.249074 4.397231 -0.258496 89 76 114
-0.197708 3.489090 -1.303512 49 41 66
0.892057 4.785627 0.533350 45 37 64
0.444339 2.112998 -0.100295 4 3 10
-1.492510 4.553959 0.467665 60 46 77
-0.352175 0.485205 -0.088133 89 86 102
-0.874159 0.875660 -0.046405 70 58 91
0.720251 1.460678 0.033442 61 50 84
1.379552 2.304246 0.301902 63 51 81
-0.443592 0.976297 -0.071468 66 55 88
1.148438 2.325748 0.016305 59 52 72
0.500339 3.320468 -1.123053 26 21 37
-0.788836 4.931869 -0.802320 98 80 121
0.997126 5.225794 -0.086498 78 65 100
-0.995531 3.457715 -0.631186 6 4 12
-0.877714 4.479246 0.480448 66 55 87
-1.365573 1.752394 0.132500 20 14 36
0.692903 1.586818 0.123568 48 40 67
0.533113 4.139284 0.947466 75 50 78
0.879450 0.656108 -0.154085 70 57 91
1.185318 2.451387 0.224894 61 51 81
0.575879 2.772674 -0.496744 8 5 18
0.349441 6.187301 0.009104 82 70 106
-0.415020 3.692556 -1.298349 62 52 82
0.481157 5.255423 -0.862004 95 78 117
0.019457 6.352782 0.286808 44 30 61
-1.833617 3.445701 0.007611 32 26 47
0.726609 0.817258 0.321403 76 61 97
-0.334517 3.001699 -0.950594 12 9 20
-0.012490 4.644715 0.959551 83 69 94
-0.978425 3.376379 -0.588005 32 27 47
0.506054 -0.000016 0.107649 16 13 23
-0.351408 4.955736 0.714912 76 62 97
1.612580 4.472605 0.384284 45 31 57
-0.555120 3.069599 0.511058 52 43 69
-1.035272 3.969186 0.233966 61 52 82
-0.912659 0.389145 -0.166126 55 46 73
0.441180 4.124882 0.809459 49 44 42
0.992784 0.615355 0.316809 65 54 85
1.175060 2.536056 0.210645 65 56 84
-1.857830 3.228048 -0.059041 16 10 33
-0.503809 5.781507 0.056742 84 70 109
1.889110 3.759577 -0.276449 85 72 108
-0.556814 0.411365 0.754853 66 52 87
-1.446916 1.813088 -0.360282 58 49 79
1.280620 1.358051 0.258463 42 39 49
0.671358 3.067708 0.422720 56 47 77
-0.428956 3.949897 0.866218 55 43 69
2.465886 1.949279 -0.124473 38 31 55
1.609423 1.995327 0.311324 67 56 88
-0.547571 3.223578 -1.034005 23 19 32
-0.415002 3.545007 -1.259385 50 41 67
2.210741 2.923762 0.124977 75 62 97
0.857900 3.003699 0.071068 44 35 64
0.806282 5.488567 -0.090370 98 82 120
-0.058934 3.184367 -1.171114 26 21 37
-0.062012 5.922853 -0.374819 91 74 113
0.621821 3.604317 0.744755 61 51 78
0.894705 -0.000017 -0.089728 0 0 0
-0.339281 3.742837 0.882902 67 55 80
-0.850009 4.783471 0.579182 31 24 47
-0.442204 3.568841 -1.255820 51 42 68
-1.044115 3.620640 0.150944 57 48 77
0.658924 3.284597 -0.994708 7 6 12
-0.458095 5.657998 -0.334131 96 83 121
0.540615 2.745677 -0.496643 8 5 17
-0.764046 5.215174 -0.553117 95 80 119
0.490092 1.529540 0.170994 65 56 85
0.229018 3.871478 -1.378708 67 57 89
1.203245 0.245594 0.859022 53 44 71
-1.026625 0.500192 0.114553 62 52 83
0.274519 6.060294 -0.229135 83 69 105
-0.460896 6.035723 0.232002 47 38 65
-0.470494 0.922534 0.201168 60 50 82
0.064015 5.098760 -1.130696 101 81 123
-1.106570 5.483588 0.194236 51 40 66
-0.444968 3.549866 0.821074 58 47 71
0.339933 5.990671 0.498675 61 50 81
-0.787130 0.973896 0.228842 68 55 89
-2.000400 3.009515 0.089602 65 54 87
0.681213 4.102235 -1.183120 54 43 70
0.974844 5.098919 -0.185779 67 56 88
0.704145 3.619490 0.688582 60 50 78
-1.130158 5.462883 0.546779 56 43 75
0.876251 0.916774 0.097689 76 63 99
1.174912 0.104287 0.767340 29 24 41
-0.498483 2.584899 0.284147 49 41 68
-1.045513 5.559679 0.179270 73 62 91
-1.650604 4.003893 -0.316451 86 74 111
-0.551210 4.205954 -1.262397 76 65 99
0.964389 3.192769 -0.285912 37 28 54
-0.956140 5.246325 -0.142943 87 72 110
-2.198409 3.091506 0.064739 63 53 79
-0.354561 -0.000016 -0.017932 6 5 9
-0.863079 3.045173 -0.316207 17 12 32
-1.111741 3.362715 -0.013850 61 51 81
-1.052130 5.126575 -0.012939 59 49 79
1.954334 2.002990 -0.137683 61 51 83
1.979828 2.306384 -0.125221 61 48 81
1.439063 1.500131 -0.220591 45 36 66
0.266993 5.880888 0.564336 68 63 62
-1.581539 1.526093 0.133491 41 33 64
0.579363 0.160356 -0.889681 35 29 49
-1.080422 4.614599 -0.357461 111 101 128
-1.133424 3.074482 -0.102542 63 54 81
-2.409892 2.278483 -0.110510 46 38 66
-1.132916 2.555742 0.161956 59 50 83
-1.132238 5.132934 0.160775 101 99 108
0.377645 3.134651 -1.056469 8 6 12
0.373198 4.134149 -1.345396 70 60 92
-1.324591 2.836174 -0.050229 67 56 88
0.512593 3.268233 -1.084612 13 10 19
-0.660379 2.865125 0.308516 53 44 72
1.623874 1.745537 0.300694 68 55 90
0.272524 4.026685 1.030948 65 49 70
0.477038 -0.000017 0.099433 0 0 0
-0.850454 4.761696 0.545449 43 35 61
-0.753809 4.792921 -0.944712 91 75 113
0.555316 2.035666 0.150420 70 60 89
-1.386816 2.037777 0.302956 66 53 86
-0.402492 0.316381 1.229904 51 44 60
-1.305185 4.349072 -0.267384 91 78 116
-1.017989 3.686107 0.248428 61 51 83
0.985213 0.122760 0.244701 10 8 14
0.982031 0.279568 -0.005914 34 28 47
-0.907793 5.786994 0.776330 78 73 83
-0.199320 3.381199 -1.259923 44 36 60
1.274907 4.598719 0.526859 42 32 56
-0.825363 3.669168 -1.027148 47 39 64
-0.767762 5.721147 0.288786 113 101 133
-2.119018 3.253723 0.040842 65 56 85
1.261375 5.419289 0.602992 20 16 29
-2.519828 1.920942 0.150990 53 47 59
-0.627361 0.487810 0.518448 79 67 101
-2.236268 2.491407 0.144326 64 54 85
-1.243177 2.636346 -0.118931 71 59 97
-1.654242 2.117733 0.232447 66 55 89
2.468659 2.505982 -0.161261 52 44 72
-0.803132 3.957910 -1.084851 60 51 80
-0.598048 5.506028 0.770934 79 66 101
-0.822081 -0.000020 -0.202553 1 1 1
2.083484 3.209478 -0.292613 70 59 93
0.955087 3.726104 0.404992 66 56 85
-0.990467 5.605030 0.571807 85 70 107
1.108559 3.689916 -0.388029 30 25 44
0.851166 5.363370 -0.190511 93 77 116
0.309294 3.599044 -1.310884 51 42 69
0.948732 4.891556 -0.411847 76 62 97
0.669082 5.563219 -0.131847 75 62 91
-0.535621 -0.000014 -0.714098 0 0 0
0.148274 3.775312 -1.381250 60 50 80
1.103676 4.587235 -0.285026 80 67 104
0.225015 4.541601 0.973317 86 66 92
0.698958 3.153061 0.454141 55 46 76
-0.321530 2.319239 0.146961 51 42 72
-0.572444 3.354578 -1.100043 33 27 45
-2.125246 3.378727 -0.219367 78 67 102
-0.669642 -0.000019 0.208173 0 0 0
0.485429 5.259433 0.783497 77 74 68
-0.724686 2.957513 -0.526225 8 5 18
-0.713331 5.554535 -0.078052 101 84 124
-0.923093 -0.000017 1.148442 3 2 5
0.307618 2.469698 0.240546 38 30 54
0.208853 6.151029 -0.209412 93 77 116
1.922250 2.308070 -0.040937 79 63 105
0.147123 3.014660 0.623990 46 37 60
0.445191 4.616910 -1.235115 82 68 104
-1.126604 0.351616 0.551792 79 67 102
1.785534 1.742342 0.210060 62 54 81
1.659279 2.161014 0.196130 65 54 88
1.763431 3.450218 -0.195907 16 10 32
-1.060299 3.913727 0.151753 62 52 83
-0.770340 3.188398 -0.790054 8 5 17
0.339393 2.399252 0.196179 41 33 58
-1.545486 1.930902 -0.206040 76 64 100
1.143883 4.512624 -0.210556 75 64 99
-0.001808 5.297187 0.601205 79 66 103
2.160142 2.967807 -0.280547 70 57 91
-1.964061 2.745861 -0.173897 52 42 74
1.976521 2.991895 0.073170 62 52 85
0.851096 -0.000013 0.032171 0 0 0
-1.060167 3.593027 -0.562968 8 6 18
-0.772630 4.202690 0.718647 48 31 57
2.351325 2.332044 -0.093774 19 14 34
0.677454 4.042174 0.738383 59 49 78
-0.889049 0.283363 -0.260963 44 36 60
-2.037712 3.510637 -0.039506 68 58 91
0.810471 3.845435 0.615970 60 50 80
1.112187 5.026128 0.632738 56 47 76
0.225824 4.887131 0.808577 61 49 73
1.021181 4.081974 0.274080 60 50 81
1.302533 2.077190 0.292534 68 56 88
-1.724874 1.577061 0.297708 60 49 79
-0.387782 0.388729 1.073547 74 68 81
0.983754 5.239359 -0.099992 76 63 97
0.654462 -0.000016 -0.824883 5 4 7
1.782987 1.691419 0.121715 58 49 79
0.932780 -0.000020 -0.502700 1 1 1
-1.033268 -0.000016 1.003459 1 1 1
-0.805979 4.594963 0.537655 68 57 91
0.772580 2.808734 -0.116344 17 11 32
0.821986 0.355044 -0.690383 79 68 103
-0.390592 0.671185 0.023289 73 60 98
-0.984866 -0.000020 -0.152954 0 0 0
0.420068 5.372117 -0.789630 97 79 119
-0.676227 3.590512 0.705678 61 51 79
-1.317439 4.036222 -0.332397 21 16 32
-0.832757 4.719872 0.530157 54 46 76
-0.688649 2.846768 0.262710 54 45 75
-0.119523 2.938933 -0.953361 12 9 20
0.220526 4.209547 -1.380466 76 65 98
-0.932652 4.130709 -0.930109 70 59 91
0.639715 4.757069 0.672246 53 45 75
-0.051124 6.240602 0.424478 79 63 99
0.778889 3.028446 -0.532891 53 44 72
-1.619131 4.076883 -0.237076 83 71 106
-0.715671 0.972753 -0.160289 74 61 96
-1.477017 4.130727 -0.351636 78 66 102
-0.496380 1.533794 -0.054042 60 50 79
-1.355059 1.667848 -0.201205 43 35 64
1.161379 4.244919 0.004442 40 33 56
1.114649 3.937629 -0.050008 62 52 84
0.339707 5.061617 0.703817 79 69 96
1.139877 4.465589 -0.083186 92 86 107
0.362377 0.476326 -0.107211 49 41 66
-1.375598 1.856610 -0.043783 24 17 43
-0.753246 2.906743 0.189313 54 45 75
0.809366 4.603391 -0.969851 81 67 103
1.350206 1.567011 -0.346936 35 27 53
0.670114 5.109901 -0.807138 94 77 116
-0.734021 1.342875 0.023949 67 57 91
0.336738 5.510430 0.549489 93 83 113
1.129059 5.051602 0.211386 50 42 70
1.333846 2.857238 0.044000 74 62 99
0.912269 3.314021 -0.682518 7 4 15
-1.109607 4.469516 -0.006732 63 53 85
-1.038920 -0.000017 -0.046206 0 0 0
-0.701177 4.088716 -1.168235 67 56 88
0.586226 5.725661 0.388442 98 84 124
0.740583 0.238735 -0.888135 38 32 52
0.506442 3.423150 0.752688 50 41 63
2.130581 2.160953 -0.470695 44 35 67
-0.822295 5.603968 0.690581 76 61 96
0.820127 3.055864 0.205009 56 46 77
-1.092798 3.584996 -0.249915 47 39 65
-1.266845 4.086749 -0.105159 46 37 64
0.917734 5.234495 -0.228085 87 72 110
-0.525546 0.270029 -0.826264 75 70 87
-1.976622 2.772092 0.057712 63 51 86
1.737291 3.467637 -0.164448 16 10 34
0.239257 2.741022 0.409142 40 33 58
0.421936 2.598666 -0.390118 7 4 15
-1.543330 1.878935 -0.262762 79 69 101
0.875517 0.224866 -0.521301 54 45 71
-0.998622 5.022713 -0.130579 62 51 81
-1.630750 2.242146 0.163965 78 66 102
1.587528 1.693319 -0.336826 37 30 51
1.144169 2.765980 0.173472 56 49 72
0.317725 3.425154 0.834836 61 50 74
0.570204 1.306796 0.199464 61 51 82
-2.421850 2.596287 -0.201346 63 53 84
2.102612 2.841768 -0.285184 95 86 108
-0.563888 5.016107 -0.984139 74 60 90
1.024907 -0.000009 0.245564 2 1 4
2.160910 2.999091 -0.279928 69 57 91
-0.813778 0.367953 0.798225 85 71 111
0.390333 2.502248 -0.288658 7 4 15
1.084682 3.662581 -0.532353 8 5 16
1.107508 3.724363 -0.137427 99 95 109
-0.991456 4.699784 -0.564466 86 69 107
0.432868 2.657469 0.337029 46 38 64
-0.968391 4.470601 0.351616 28 23 40
0.773305 -0.000013 -0.703785 0 0 0
0.482849 5.547180 0.670062 71 59 93
-0.863225 3.019403 -0.242440 10 6 23
0.574059 4.727113 -1.129382 82 69 101
0.608313 4.056475 0.800080 49 40 65
-0.531689 -0.000019 -0.507446 0 0 0
-0.797927 0.305172 0.935649 72 60 97
0.716961 -0.000013 0.558416 1 1 1
0.069644 6.545736 0.385635 42 34 50
-0.642134 5.720695 0.277809 93 79 118
-0.760610 5.490574 0.794730 93 86 109
0.916508 5.019390 -0.399286 72 59 92
-0.555183 5.415137 0.803473 49 37 63
-0.317012 -0.000009 -0.390996 30 24 44
-0.411752 3.898569 0.868140 55 42 66
0.955280 0.508082 -0.079774 47 39 65
-1.102931 0.068024 1.067153 14 11 20
-1.048218 3.106680 -0.126332 25 19 39
1.116774 4.163578 0.062662 94 87 107
-1.134106 5.464990 0.252632 66 55 86
0.906455 0.766691 0.268924 72 62 96
0.834452 5.629926 0.087570 99 83 121
1.556437 4.136400 -0.279509 59 49 77
1.732970 1.695774 0.053233 69 61 86
0.666835 -0.000017 -0.184266 1 1 1
0.607072 2.899685 0.371931 48 40 66
-0.720707 4.894606 0.776870 93 81 93
-2.500457 2.491714 0.098280 65 54 86
-0.425099 4.766671 -1.192843 90 73 112
-1.155484 1.698394 0.061702 65 56 86
0.472108 1.288752 0.121096 54 45 76
-0.306460 -0.000020 -0.341878 0 0 0
-2.152191 2.983676 0.119472 72 60 94
-0.539277 -0.000015 0.490696 1 1 1
-2.051392 2.100928 -0.122008 65 55 87
0.574886 3.651991 0.779205 65 55 83
0.764526 0.771456 0.338216 71 58 92
0.777869 1.157742 0.039673 59 49 82
-0.755835 4.916177 -0.862577 98 79 120
1.526818 2.374655 -0.064810 78 65 102
-0.536392 0.929227 0.250268 76 63 100
0.610846 5.684830 0.107466 100 84 125
-0.012854 3.380095 -1.280033 44 37 60
-0.364136 -0.000014 0.944694 0 0 0
-0.859647 0.856613 -0.087232 70 59 92
-0.880094 3.780404 0.530276 106 102 117
-0.173387 4.037725 -1.396031 76 64 98
-2.482076 2.297698 -0.126977 63 53 85
2.287584 2.675670 -0.308152 79 65 101
-1.067389 4.923193 0.544949 41 33 57
-1.140914 5.353935 0.158465 79 66 101
-0.123343 4.338643 -1.381294 90 80 110
2.430522 2.598229 -0.192233 61 52 82
-1.102471 3.402216 -0.019148 56 46 75
-1.243693 4.314404 -0.413329 77 65 99
-0.238225 4.935244 -1.184955 74 59 92
-2.037333 1.859162 0.129309 32 25 40
0.414288 5.783299 -0.194324 81 70 106
1.615522 3.958959 -0.106718 56 47 77
-0.823643 0.353521 -0.593689 71 60 93
1.819793 3.316502 -0.090058 26 19 41
-2.075019 1.897083 0.041229 33 27 47
0.205575 4.063706 1.029655 74 57 70
1.357159 5.499965 0.618582 33 27 40
1.124804 4.533703 -0.146004 74 63 96
1.317565 1.859058 0.315216 60 50 78
0.439530 2.482388 0.255190 50 41 69
-1.133958 4.449986 -0.456644 83 69 108
0.319622 -0.000020 0.229327 0 0 0
0.846117 3.698064 0.563444 63 54 83
0.725696 5.134529 -0.702680 94 78 116
-0.144832 2.773174 -0.709595 16 11 27
-2.258887 2.629519 -0.338199 83 69 104
-0.647591 5.375657 0.832865 35 19 13
1.098539 5.218729 0.691228 60 51 80
0.406132 3.316742 0.748503 49 40 63
1.792094 3.418172 -0.038630 47 37 69
-0.828955 5.112052 0.823232 70 60 77
0.801353 0.068872 -0.604367 15 12 21
2.579547 2.168324 -0.046762 63 53 84
-1.030726 0.124550 0.343050 3 2 5
-0.989625 5.824586 0.743083 37 28 50
0.444124 2.736211 -0.538636 8 5 16
-0.442835 6.084115 0.099867 70 59 92
-0.922046 5.894526 0.729520 88 79 99
1.903718 3.613789 -0.008469 74 63 96
-1.014641 0.468623 0.495081 88 76 113
-1.080638 3.682523 -0.568341 14 10 22
-0.961868 0.407482 1.015190 68 57 80
-0.065498 3.498592 -1.324281 43 35 58
-1.046675 0.491136 0.409327 75 63 97
0.292588 4.807099 0.826138 82 69 100
-1.180285 4.458243 -0.209368 87 74 111
-0.975876 4.901089 -0.268479 62 49 80
-1.044431 0.429349 0.781361 86 73 111
0.611153 1.782225 0.154017 65 54 86
-0.614028 1.812396 0.141838 63 52 83
-0.512020 1.766289 -0.070091 56 48 77
1.517386 2.247878 -0.112257 73 61 97
-0.397150 5.866324 -0.174143 82 70 107
0.439576 2.662956 0.337893 46 38 63
-1.194082 0.131444 0.932060 28 23 40
0.761436 3.367827 0.535797 55 46 74
1.985472 2.770594 0.074300 63 52 85
0.897526 -0.000015 -0.343050 2 1 3
-0.714041 3.492440 -1.064562 41 33 56
1.354850 2.203896 -0.143668 71 58 91
-0.646774 5.717206 0.484686 90 75 114
-2.262782 2.486596 0.147373 64 53 84
-1.106941 5.327044 0.660933 67 57 91
-0.819783 4.909182 -0.770372 89 72 110
-1.157748 3.204253 -0.003760 75 64 96
-0.984911 -0.000017 -0.029571 1 1 1
-0.105480 6.269750 0.359451 96 80 119
-0.738578 0.435816 -0.493100 90 77 114
-0.473272 1.934401 -0.077442 55 45 75
-0.548093 0.979355 0.240969 68 56 91
-0.537619 2.133760 -0.113474 18 16 26
-0.484121 3.247710 0.670061 48 39 62
0.888934 -0.000015 0.512524 0 0 0
-1.951461 2.788687 -0.153910 51 41 73
1.122701 4.327548 -0.537041 72 60 93
0.067184 4.063004 -1.406530 76 64 98
1.549419 4.079937 -0.337915 67 55 84
-1.268168 2.619823 -0.123964 70 59 92
0.950150 4.858658 -0.457599 91 80 108
0.184974 6.226196 -0.136764 94 79 118
0.373194 5.211006 -0.969339 71 55 89
-2.500587 2.127640 -0.130869 84 75 107
0.744715 2.735659 -0.137680 16 11 31
0.952349 5.580961 0.091054 103 88 122
0.322555 -0.000015 0.752596 8 6 15
-2.567205 1.933499 0.133437 31 22 41
-1.171525 1.273627 0.207617 6 4 12
-1.184687 0.327517 0.927522 59 50 79
1.153384 3.976530 -0.409277 7 5 16
0.417666 4.458640 -1.286868 52 42 68
0.462621 -0.000013 0.897677 0 0 0
-0.242384 5.886050 -0.320215 72 59 91
0.178872 5.853234 -0.372463 57 44 72
0.310323 4.102852 0.987114 67 41 68
2.474059 2.432432 -0.150993 58 49 79
1.414737 1.996914 0.301916 65 53 85
0.173727 2.477517 -0.219508 17 12 29
-0.445851 -0.000016 -0.698956 46 39 63
-2.120607 2.090793 -0.016149 49 40 70
1.766200 1.831033 0.200969 51 41 69
0.982861 5.187070 -0.132211 74 62 96
-1.402347 4.034026 -0.119749 31 25 47
-0.962137 5.152346 -0.195538 73 61 95
0.523969 1.232024 -0.094911 69 58 92
0.196973 4.751976 -1.268793 76 60 93
-0.490669 3.833028 0.833079 61 51 78
-0.982458 4.905442 -0.235375 53 41 67
-0.247902 4.923355 -1.187644 63 48 80
2.157685 3.356739 -0.175596 79 67 102
-1.530184 2.427514 0.170132 76 64 101
0.886434 -0.000017 -0.312771 0 0 0
-0.867256 5.597135 0.681782 76 62 98
0.309549 -0.000008 -0.075060 26 21 39
0.983268 4.411078 0.330396 63 53 84
-0.395614 3.393298 0.792170 50 41 63
-0.971682 3.925510 0.388298 63 53 83
0.229591 5.299095 -0.960995 104 87 123
-1.032276 4.584095 -0.587722 88 76 103
-2.572076 2.226094 -0.038163 68 57 89
-0.312556 5.098955 -1.072312 90 76 105
-0.654090 5.471833 0.798174 89 79 103
-0.260572 2.770539 -0.658869 15 11 26
0.057726 5.966458 0.612232 47 26 8
-1.061506 0.436308 0.235403 68 57 90
0.506791 3.719919 0.819752 88 80 100
0.328337 0.228304 0.322064 49 40 69
-0.814198 4.990605 -0.698099 87 72 107
-0.975376 -0.000015 1.103739 1 1 1
-0.095784 2.794468 -0.758549 15 12 26
-1.956966 2.032290 -0.139543 64 53 84
1.031343 3.335723 -0.268822 44 36 62
1.319486 4.315252 -0.176518 74 63 95
2.090578 2.148246 0.127835 62 51 82
-0.024679 -0.000014 0.406899 59 46 81
-0.828753 0.671299 -0.188205 71 57 92
1.601617 3.935098 -0.096009 53 43 72
-1.179601 4.441533 -0.361984 83 70 106
-0.509066 2.459396 -0.242954 6 4 14
-0.723799 0.130337 -0.911641 26 22 38
0.255337 4.088056 -1.379915 71 60 92
-1.640177 1.444065 0.296754 67 63 72
1.760604 1.431064 0.040697 34 28 46
-0.422989 2.871332 0.458156 46 37 63
0.188123 2.697738 -0.568876 15 11 26
-0.449490 3.360496 -1.169317 38 31 52
0.342508 2.977397 -0.919470 11 8 18
1.332698 2.812625 0.110264 62 51 83
1.517413 3.935325 -0.337772 53 46 74
-1.324473 2.253768 0.293425 57 48 70
-0.471882 1.747646 -0.046263 65 57 83
0.644025 0.600631 -0.308784 87 71 109
0.635832 0.255704 0.969949 65 53 90
-0.927651 0.553457 0.440024 79 66 102
1.136583 5.253063 0.638447 60 50 80
1.433930 4.132767 -0.125169 45 37 61
-0.801312 3.505064 0.561966 55 46 75
-1.404198 2.566580 -0.092211 74 62 97
-1.745433 3.849433 -0.088152 57 46 73
-0.953216 3.557363 -0.808078 26 21 38
2.000964 1.773294 0.049111 7 4 12
-1.137632 2.852841 -0.091638 61 51 83
1.146085 4.470091 -0.400207 84 71 108
-0.004667 4.503158 1.038494 76 56 78
-0.841427 0.775367 -0.146728 160 157 165
-0.927313 4.169818 -0.933746 69 58 90
0.724404 4.535568 0.871443 117 111 106
0.036796 4.741656 -1.291905 91 73 112
1.052434 4.883163 0.443084 46 37 64
1.680926 3.783857 -0.053995 42 34 59
0.360739 5.096339 0.710597 68 51 81
-0.896085 4.504074 -0.893068 81 68 103
2.406769 1.932951 0.095026 43 34 60
1.753710 1.771441 0.255680 66 54 86
1.312862 2.434547 -0.126473 78 65 98
-0.132253 4.701905 0.927411 82 68 93
1.794018 3.720822 -0.335507 69 56 89
-0.570729 1.072854 -0.141472 77 66 101
0.586150 3.294596 0.638688 51 42 66
0.732676 1.374353 0.051234 62 51 87
-0.125485 6.016606 -0.326910 92 76 115
-1.123594 2.415066 0.066947 49 39 70
0.112786 4.281946 -1.389775 78 67 101
0.659882 3.010951 -0.710864 13 9 22
0.923495 5.736841 0.624451 54 41 72
1.071300 3.829033 -0.661894 14 11 21
-0.427650 -0.000014 -0.527087 1 1 1
-1.099592 4.185786 0.094092 55 45 74
0.553255 2.200048 0.166255 76 72 89
-0.710921 2.613052 0.089896 54 45 72
-2.072366 1.881931 0.115712 23 16 32
0.051650 3.920044 0.980326 22 15 25
-2.101438 2.617740 -0.301747 67 55 89
-0.443575 3.789246 -1.304017 60 51 80
0.634691 5.148175 -0.813159 94 76 115
-0.731220 2.656994 -0.077758 41 33 59
0.768435 3.810130 -1.107158 54 46 73
2.346571 2.922820 -0.010657 45 38 58
1.787082 1.466508 0.276054 35 25 45
1.081391 4.232808 -0.643364 69 58 91
-1.981677 1.874397 0.144397 34 27 43
-0.288612 4.873090 -1.199171 57 44 71
0.041547 -0.000010 0.702518 1 1 1
0.450258 5.840120 -0.092204 78 66 102
0.128456 -0.000015 -0.087968 1 1 1
-0.429272 0.132807 1.166743 45 37 62
-0.272115 -0.000017 0.715979 8 6 11
-0.360105 5.477123 -0.709383 101 84 124
-0.859794 4.914895 0.771756 78 58 83
0.509824 0.604914 0.375492 81 71 102
0.196365 3.016828 -1.017086 11 8 19
-2.044373 2.791069 0.112154 70 60 89
0.922694 3.448571 -0.791304 5 3 11
-0.232692 2.434701 -0.184596 15 10 26
-2.066298 2.646942 0.126154 61 50 81
0.973505 0.418764 0.948878 59 46 74
-0.500299 4.634566 -1.203586 86 70 108
0.621341 4.191659 0.859856 70 43 73
0.425084 4.602997 -1.247572 83 68 105
-0.594834 -0.000012 -0.825628 1 1 3
-0.974356 0.201573 1.161634 37 31 50
0.884151 5.127152 -0.403121 85 72 104
2.344767 2.702434 -0.257915 75 62 96
1.138223 5.466112 0.472076 57 46 76
-1.170104 0.100332 0.976328 26 21 38
0.398519 3.723416 0.861769 69 57 84
0.450241 1.781106 -0.012506 52 42 73
1.127153 5.347689 0.127216 75 63 97
-0.227092 3.075232 0.655463 44 35 57
0.196986 4.494864 1.012301 75 52 79
0.336133 2.911510 -0.836160 12 8 20
-2.371811 2.812103 0.068964 71 59 92
-0.496043 3.502853 -1.209022 46 38 62
0.718107 0.579934 0.451467 79 67 102
-0.848214 4.517348 0.510980 66 56 88
1.173974 0.312252 1.035886 53 42 72
0.344393 0.129861 1.147463 36 29 51
-0.841397 0.318876 -0.586868 78 66 101
-0.506583 4.092916 -1.291031 77 65 100
-0.872829 4.054333 -1.012714 66 55 86
-0.852234 3.843468 0.569019 64 54 85
0.703808 -0.000019 -0.783835 0 0 0
-0.403413 4.940015 -1.124911 91 73 111
-0.421944 0.856190 0.129811 64 52 88
-0.774726 0.815277 0.312349 70 56 90
1.955407 2.523398 0.009875 70 57 94
-0.319407 3.416780 -1.245101 58 48 77
-1.333685 5.555332 0.632216 65 55 78
-1.119464 3.776402 -0.222573 57 48 77
0.005125 5.315208 -0.988679 97 80 118
-0.144832 2.773174 -0.709595 16 11 27
-0.873818 4.757651 -0.797087 128 126 132
-0.444715 2.861762 -0.702902 11 8 20
-1.562900 1.635811 0.200533 58 45 80
1.793978 1.513057 0.079551 57 47 76
-0.183466 2.528549 0.230233 41 33 58
-0.917860 0.806918 0.183414 76 63 98
-1.038525 4.708274 0.014871 68 57 89
-0.524539 4.097152 -1.281422 73 62 96
-0.500415 0.436892 0.711227 68 53 89
0.097410 3.060585 0.663689 43 35 55
0.292588 4.807099 0.826138 82 69 100
2.123851 3.044559 0.109253 70 59 93
-1.385754 1.657575 -0.435720 49 38 61
1.395343 2.235509 0.307705 95 88 108
0.034328 5.427939 -0.887908 101 83 123
0.439914 4.049499 0.979800 45 29 48
2.157886 3.199501 0.042081 52 41 67
-0.663074 4.872439 -0.991881 89 73 109
1.874680 3.363855 -0.247126 52 43 70
1.063249 3.965157 0.144173 60 50 81
-0.551376 3.092412 -0.919335 5 3 11
-0.723931 -0.000015 0.171476 0 0 0
-0.657286 3.650435 0.728393 60 51 78
0.833787 4.811133 0.660663 32 24 48
-0.596795 2.819025 0.338658 53 44 72
-1.763137 3.446123 -0.068910 15 10 31
-0.938520 5.581987 0.082388 90 74 112
0.534187 0.392826 0.968273 50 37 66
2.018103 2.527684 -0.182316 43 35 63
-0.955662 5.041537 -0.262196 72 60 93
0.817771 3.564186 -0.999406 40 33 56
0.617121 -0.000015 1.107100 13 11 19
1.394386 4.091177 -0.361225 65 54 85
2.284285 3.053442 -0.027890 64 54 85
0.441566 0.568678 -0.220573 69 58 90
0.188123 2.697738 -0.568876 15 11 26
0.666820 0.328701 0.658184 55 46 78
0.007905 5.481703 0.581959 59 48 79
0.425128 4.085584 0.990896 70 48 74
-1.342771 1.644677 -0.276711 48 38 69
0.339382 3.109103 0.644343 43 35 55
1.088107 3.478216 0.001064 59 49 79
-1.555286 4.088501 -0.156596 67 57 88
-1.929724 1.913441 -0.076102 22 16 37
0.546572 5.001989 0.737557 96 85 83
2.068203 3.518916 -0.182490 99 91 119
-0.057227 3.055090 0.662526 50 41 65
-2.234558 3.206132 -0.143570 78 67 102
-0.782270 0.065877 -0.764492 6 4 8
0.499296 3.820154 0.828723 63 52 80
2.448868 2.624918 -0.164394 71 60 93
1.111630 3.703500 -0.223784 55 46 75
0.819326 3.966053 0.604879 61 51 82
1.195638 0.284612 0.798778 68 57 90
0.229229 0.298457 0.739025 76 64 101
-0.384054 -0.000017 0.755914 0 0 0
-1.680234 1.877947 0.007668 71 60 94
-0.161124 2.822333 0.472288 37 30 51
1.887100 3.317118 0.023673 55 45 76
1.928364 2.856960 -0.057130 58 49 80
-0.455368 5.691705 -0.273246 94 81 118
1.441304 2.204090 -0.144756 72 60 94
1.135248 4.307314 -0.524099 71 60 94
-2.120162 3.359098 -0.242261 73 61 94
-1.088199 4.601394 -0.133464 82 69 106
-2.173740 3.240587 -0.243793 74 62 98
0.012691 4.166579 -1.406041 124 121 128
2.311627 2.990920 -0.019261 108 103 120
0.640653 3.051887 0.438023 51 42 70
-1.796440 1.440926 0.092958 41 34 56
0.203635 -0.000010 0.181056 7 6 11
1.983410 1.974057 -0.140841 55 46 76
0.885865 0.587237 -0.167319 68 57 91
0.242889 0.336024 0.956004 86 72 110
0.241067 2.813498 0.462978 39 32 55
0.426504 5.509524 -0.609562 84 73 107
-1.071513 5.119543 0.028415 99 96 105
2.343240 2.917067 0.017173 53 43 71
2.160737 2.253796 -0.516251 82 69 107
0.542454 0.135427 -0.835349 25 20 36
0.700756 1.022238 -0.148620 76 65 99
-1.177486 5.188244 0.535038 74 67 91
-1.020422 3.722729 0.251931 64 53 86
2.115920 2.352197 -0.131539 27 20 43
-1.323460 1.489259 0.156168 44 36 63
-0.945722 5.676294 0.386648 100 84 124
1.679601 1.449686 0.017801 51 42 71
0.089705 6.171312 0.527550 80 64 101
-0.633765 3.035869 -0.777412 6 4 14
-1.043125 4.621563 0.491291 50 39 66
0.832722 5.665525 0.147557 95 78 118
-0.877690 4.822060 -0.737111 81 69 98
0.979215 4.948362 0.742700 55 42 70
0.825912 3.567628 0.556898 59 50 78
-0.246895 -0.000015 1.063245 1 1 1
0.660300 5.725288 0.309932 102 86 126
-0.496062 3.131335 -0.993473 7 5 13
-0.984665 4.012985 0.361523 62 52 82
-0.415804 4.213964 0.780171 68 63 51
-0.212839 6.204669 0.409780 72 56 89
0.757342 -0.000010 -0.011316 0 0 0
0.602385 1.072545 -0.146685 98 90 116
-0.747121 5.382720 -0.360050 103 86 127
0.833076 -0.000015 -0.374025 1 1 1
-0.172714 3.333163 0.834031 56 46 68
-0.767610 -0.000018 -0.037710 0 0 0
1.646938 1.568752 0.034074 66 56 89
-1.052809 4.681253 -0.198482 83 70 107
1.143422 1.241566 0.202988 16 10 25
1.926272 3.493117 0.025684 74 62 95
0.099871 5.609246 0.579882 62 53 53
-0.361522 2.336143 0.176011 50 41 69
2.371250 2.151048 -0.420307 58 48 77
-0.042627 4.213701 -1.401663 61 49 79
1.410756 4.235961 -0.176200 57 47 76
1.159047 3.051531 0.111206 47 39 60
